# .PCD v0.7 - Point Cloud Data file format
VERSION 0.7
FIELDS x y z rgba
SIZE 4 4 4 4
TYPE F F F U
COUNT 1 1 1 1
WIDTH 1126
HEIGHT 1
VIEWPOINT 0 0 0 1 0 0 0
POINTS 1126
DATA ascii
-2.0495551 14.580523 0.60625768 4294901760
-1.9440873 14.576785 0.60576689 4294901760
-1.8390391 14.574312 0.60533071 4293977740
-1.7689013 14.570926 0.60500354 4293977740
-1.6526374 14.568424 0.60456729 4293977740
-1.5367198 14.567084 0.60418564 4293977740
-1.4669816 14.563203 0.60388577 4293977740
-1.3509276 14.556356 0.60339499 4294901760
-1.2472517 14.556554 0.60314965 4294901760
-1.1436348 14.556058 0.60290426 4294901760
-1.0398781 14.55179 0.60257709 4294901760
-0.93599975 14.542837 0.6021409 4294901760
-0.84454912 14.54745 0.6021136 4293977740
-0.77541232 14.54027 0.60181373 4293977740
-0.6608932 14.53892 0.60162288 4293977740
-0.5692656 14.535792 0.60143209 4293977740
-0.45484632 14.531824 0.60121393 4293977740
-0.35191962 14.525658 0.6009686 4293977740
-0.24917281 14.523806 0.60085952 4293977740
-0.13506371 14.520317 0.60072315 4293977740
-0.066647112 14.525809 0.60085952 4293977740
0.047370899 14.513176 0.60051417 4293977740
0.13850394 14.507308 0.6003688 4293977740
0.25245297 14.507058 0.60040516 4293977740
0.36630377 14.501344 0.60031426 4293977740
0.43479761 14.504435 0.60045058 4293977740
-2.4297764 14.757107 0.61258274 4294901760
-7.4066043 15.939283 0.60172617 4293977740
-7.3993149 16.055023 0.60402787 4293977740
-7.413043 16.218122 0.60750306 4293977740
-7.4175453 16.363264 0.61052692 4293977740
-7.3919902 16.512932 0.61337018 4293977740
18.298407 21.68722 0.64874792 4293977740
18.304773 21.833416 0.65055978 4293977740
18.284821 22.019352 0.65259039 4293977740
18.302198 22.181496 0.6547147 4293977740
18.317446 22.342432 0.65680772 4293977740
14.768045 22.471272 0.62553692 4294901760
14.875044 22.479759 0.62656784 4293977740
15.005302 22.445961 0.62725508 4293977740
15.115996 22.458397 0.6283797 4293977740
15.213446 22.450499 0.62912941 4293977740
15.368835 22.451122 0.63050401 4293977740
15.467696 22.443871 0.63128495 4293977740
15.571228 22.442783 0.63219094 4293977740
14.689718 22.505836 0.62531817 4294901760
18.305349 22.543293 0.65911949 4293977740
14.671534 22.710779 0.62784863 4294901760
18.318666 22.704885 0.6612125 4293977740
14.688799 22.89469 0.63041025 4293977740
18.334906 22.871466 0.66339934 4293977740
14.701811 23.073879 0.63287818 4293977740
18.345276 23.032124 0.66546112 4293977740
14.677301 23.276459 0.63534611 4293977740
18.330774 23.237553 0.6678353 4293977740
18.346594 23.408276 0.6700846 4293977740
18.36768 23.587202 0.67249 4293977740
18.337009 23.777946 0.67455184 4293977740
18.357195 23.959167 0.67698848 4293977740
18.375212 24.139156 0.67939401 4293977740
18.356443 24.351566 0.68186188 4293977740
18.372259 24.532282 0.68426728 4293977740
18.395487 24.72456 0.68689144 4293977740
-5.7351375 24.940907 0.6052624 4293977740
-5.6197348 24.977411 0.60541856 4293977740
-5.5395064 24.987131 0.60529363 4293977740
-5.4490933 24.949694 0.60441887 4293977740
-5.3677483 24.953003 0.60420024 4293977740
-5.2505164 24.979979 0.60423148 4293977740
-5.1675839 24.974804 0.6038878 4293977740
-5.0823407 24.957598 0.60335678 4293977740
-4.9522729 24.918491 0.60235709 4293977740
-4.8758659 24.943745 0.60251331 4293977740
-4.7956061 24.949114 0.60235709 4293977740
-4.6695557 24.926222 0.60163856 4293977740
-4.5515165 24.944963 0.60159171 4293977740
-4.4285202 24.935646 0.60110748 4293977740
-4.3021622 24.904991 0.60029531 4293977740
-4.2249007 24.924301 0.600389 4293977740
-4.1452794 24.92956 0.60026407 4293977740
18.416498 24.915619 0.68948436 4293977740
18.388742 25.124699 0.69185853 4293977740
18.403913 25.311657 0.69435775 4293977740
18.430983 25.516775 0.69720054 4293977740
18.400192 25.728531 0.69960594 4293977740
8.7094927 -23.1373 0.7630285 4293977740
8.5668821 -23.088139 0.76086211 4293977740
9.4861708 -22.680386 0.7599144 4293977740
9.5729589 -22.6873 0.76081705 4293977740
9.5821686 -22.511837 0.75725162 4293977740
9.6254444 -22.321449 0.75368607 4293977740
9.6243649 -22.127991 0.74966931 4293977740
9.6084814 -21.903648 0.74488533 4293977740
9.6416054 -21.701056 0.74100399 4293977740
9.6163034 -21.462746 0.73585892 4293977740
9.650671 -21.359579 0.73405361 4293977740
9.658721 -21.200035 0.73084927 4293977740
13.369278 -21.19846 0.77070093 4293977740
9.7014275 -21.030888 0.72778034 4294901760
13.372461 -21.056833 0.76803815 4293977740
13.363017 -20.896881 0.76487887 4293977740
13.386349 -20.717876 0.76176476 4293977740
9.8065977 -20.659365 0.72119105 4294901760
13.382562 -20.570206 0.7589215 4293977740
13.373595 -20.416077 0.75589764 4293977740
9.7607155 -20.397717 0.71541405 4294901760
13.383515 -19.353777 0.73612976 4293977740
13.424109 -19.218424 0.73414385 4293977740
-6.454679 -19.107056 0.75473326 4294901760
13.416455 -19.079733 0.73148108 4293977740
13.395334 -18.923342 0.72832191 4293977740
13.403582 -18.809574 0.726336 4293977740
13.439426 -18.673235 0.72430503 4294901760
13.399331 -18.49502 0.72051394 4294901760
13.43141 -18.417322 0.71952105 4294901760
13.564364 -18.416557 0.72128129 4294901760
13.662706 -18.428419 0.72281575 4294901760
13.754067 -18.430235 0.72407937 4294901760
13.854024 -18.382769 0.72457588 4294901760
13.853614 -18.262753 0.72240949 4294901760
13.85016 -18.139748 0.72015297 4294901760
17.243429 -18.121077 0.7696178 4293977740
17.400734 -18.114525 0.77196467 4293977740
17.515987 -18.120089 0.77386022 4294901760
13.842408 -18.012196 0.71776092 4294901760
15.139028 -18.000738 0.7359041 4294901760
15.25371 -18.021706 0.73793495 4294901760
15.385288 -18.004295 0.73955977 4293977740
15.504434 -18.028574 0.74172616 4293977740
15.609469 -18.03566 0.74339604 4293977740
15.75093 -18.026587 0.74533665 4293977740
15.868293 -18.046022 0.7474128 4293977740
15.979304 -18.057413 0.74926317 4293977740
16.117569 -18.0415 0.75106847 4293977740
16.238411 -18.06208 0.75323486 4293977740
16.346107 -18.067265 0.75494981 4293977740
16.460737 -18.079338 0.75689054 4293977740
16.604002 -18.064806 0.75883114 4293977740
16.723198 -18.080013 0.76090729 4293977740
16.845381 -18.097565 0.76307356 4293977740
16.996271 -18.087858 0.76523995 4293977740
17.113522 -18.098234 0.76722574 4293977740
17.595158 -18.087879 0.77458239 4294901760
14.598583 -17.980469 0.72778034 4294901760
14.687937 -17.974737 0.72895372 4294901760
14.797748 -17.993305 0.73084927 4294901760
14.948301 -17.945225 0.73218071 4294901760
13.876801 -17.882057 0.71591055 4294901760
13.915653 -17.816332 0.71527863 4294901760
14.009919 -17.821213 0.71667778 4294901760
14.231943 -17.813639 0.71965647 4294901760
14.333007 -17.824884 0.72128129 4293977740
14.113664 -17.780029 0.71739984 4293977740
-6.4408116 -17.347382 0.70936716 4293977740
-5.9202323 -17.352413 0.70473242 4293977740
5.7345839 -17.307243 0.70195162 4293977740
5.854682 -17.305006 0.70293307 4293977740
5.9497714 -17.316916 0.70407814 4293977740
6.0702953 -17.313202 0.70505959 4293977740
6.1279812 -17.303473 0.70533228 4293977740
-6.4382215 -17.175507 0.70495057 4293977740
-6.4616075 -17.074835 0.70260596 4293977740
-6.4887214 -16.985386 0.70058846 4293977740
13.688827 -16.947371 0.79884517 4293977740
13.71302 -16.814436 0.79644597 4293977740
13.71258 -16.706305 0.7941559 4293977740
13.724315 -16.613771 0.79241103 4293977740
-2.3642304 -16.508593 0.77497721 4293977740
-2.2626021 -16.538944 0.7755245 4293977740
-2.145757 -16.555492 0.77555865 4293977740
-2.0545919 -16.566092 0.77552444 4293977740
-1.9607008 -16.553268 0.77470356 4293977740
-1.8424487 -16.555809 0.77432728 4293977740
-1.7643042 -16.563335 0.77429312 4293977740
-1.6842384 -16.551577 0.77360904 4293977740
-1.5417348 -16.571434 0.77381432 4293977740
-1.4504278 -16.577715 0.77374583 4293977740
-1.3585441 -16.576427 0.77343804 4293977740
-1.2613493 -16.502964 0.77066755 4293977740
-1.0578973 -16.582329 0.77289081 4293977740
-0.94063032 -16.588367 0.77285659 4293977740
-0.84870625 -16.579359 0.77237773 4293977740
-0.75776398 -16.58872 0.77254879 4293977740
-0.61417335 -16.587704 0.7723093 4293977740
-0.53519958 -16.564444 0.77142006 4293977740
-0.30121201 -16.584343 0.77189893 4293977740
-2.5074577 -16.404545 0.77217251 4293977740
-2.438941 -16.47648 0.77425897 4293977740
-1.6262501 -16.495111 0.77148843 4293977740
-1.1302269 -16.490423 0.7699151 4293977740
13.717731 -16.499784 0.78990281 4293977740
-2.6533699 -16.326881 0.77032554 4293977740
-2.5816512 -16.372797 0.77148843 4293977740
13.750407 -16.381308 0.78799438 4293977740
13.751559 -16.278404 0.78586781 4293977740
-3.3292017 -16.131182 0.76793128 4293977740
-3.148597 -16.151115 0.76738405 4293977740
-3.0573449 -16.155365 0.76693934 4293977740
-2.9444861 -16.184467 0.76721299 4293977740
13.763838 -16.189379 0.78423202 4293977740
-6.2180114 -16.033197 0.79276299 4293977740
-6.1345649 -16.041775 0.79201055 4293977740
-6.0455761 -16.034918 0.79071081 4293977740
-5.9650726 -16.050138 0.79023194 4293977740
-5.8549099 -16.061909 0.78930843 4293977740
-5.7687244 -16.060171 0.78824812 4293977740
-5.6445565 -16.03006 0.78585392 4293977740
-5.5676584 -16.052719 0.78571707 4293977740
-5.4932389 -16.082563 0.78585386 4293977740
-5.2339015 -16.06164 0.78236514 4293977740
-5.1809745 -16.070391 0.78209156 4293977740
-3.1858289 -16.072498 0.76498979 4293977740
5.0607977 -16.049942 0.78017616 4293977740
5.1516762 -16.073511 0.78188634 4293977740
5.2594414 -16.061686 0.78263879 4293977740
5.3395109 -16.050014 0.78311759 4293977740
5.4125137 -16.017105 0.78284401 4293977740
13.774962 -16.048407 0.7815057 4293977740
-6.4050307 -15.991713 0.79378909 4293977740
4.8747077 -15.984204 0.77614009 4293977740
4.9612832 -15.997314 0.77743983 4293977740
5.4595604 -15.990568 0.78250194 4293977740
5.5493574 -15.965927 0.78270715 4293977740
5.6701527 -15.948914 0.78352803 4293977740
5.7554688 -15.950225 0.78455412 4293977740
5.8416133 -15.952941 0.7856487 4293977740
5.9265079 -15.951429 0.78660637 4293977740
6.0655289 -15.940797 0.78794026 4293977740
6.1597214 -15.96145 0.78975308 4293977740
13.784856 -15.958104 0.77981544 4293977740
-3.1979194 -15.870321 0.75828588 4293977740
-6.355248 -15.723031 0.78462261 4293977740
10.291537 -15.525083 0.71269327 4293977740
10.319068 -15.408243 0.71045774 4293977740
5.9738111 -15.26813 0.7653318 4293977740
10.313884 -15.296104 0.70784044 4293977740
-0.18204382 -15.134834 0.7222355 4294901760
4.1950359 -15.112155 0.74097896 4294901760
4.2484732 -15.120059 0.74173146 4294901760
4.347847 -15.108404 0.7422787 4294901760
4.4308524 -15.128034 0.74371523 4294901760
4.504962 -15.116558 0.7440573 4294901760
5.9694157 -15.117374 0.76047498 4293977740
10.312584 -15.190778 0.7054413 4293977740
0.4792752 -15.00035 0.71785742 4293977740
0.59823346 -15.024082 0.71881509 4293977740
0.64632332 -15.042096 0.71949917 4293977740
0.7626586 -15.002623 0.71833628 4293977740
0.81045312 -15.012129 0.71874672 4293977740
0.94012749 -15.004524 0.71874666 4293977740
1.0475078 -15.016468 0.71939653 4293977740
1.1661278 -15.016744 0.71970439 4293977740
1.2377158 -15.021061 0.72004646 4294901760
1.3334203 -15.027899 0.72055948 4293977740
1.4394116 -15.016086 0.72049105 4293977740
1.5474129 -15.023449 0.72110671 4294901760
1.6555562 -15.029991 0.72172242 4294901760
1.761982 -15.019922 0.72179085 4294901760
1.8609283 -15.045264 0.72305632 4294901760
1.932448 -15.041265 0.72322738 4294901760
2.0514894 -15.032553 0.72346675 4293977740
2.1483364 -15.03618 0.7240482 4293977740
2.2698226 -15.041567 0.72483492 4293977740
2.3447201 -15.056393 0.72572422 4293977740
2.4399309 -15.045287 0.72586101 4293977740
2.5502543 -15.051286 0.72668195 4293977740
2.6613312 -15.059469 0.7276054 4293977740
2.7557118 -15.041488 0.72757119 4293977740
2.8319716 -15.056789 0.72856313 4293977740
2.9433467 -15.061867 0.72945237 4293977740
3.0551569 -15.067143 0.73037589 4293977740
3.1530647 -15.063317 0.73092312 4293977740
3.2324674 -15.087344 0.73229128 4294901760
3.3515205 -15.064416 0.73239392 4293977740
3.4548717 -15.081038 0.73372781 4294901760
3.555088 -15.082394 0.73454869 4294901760
3.6294293 -15.07905 0.73502755 4294901760
3.7574611 -15.088858 0.73639566 4294901760
3.8305066 -15.07875 0.73666936 4294901760
3.9355888 -15.093995 0.73807168 4294901760
4.049222 -15.091824 0.73899519 4294901760
4.1384983 -15.092505 0.73981607 4294901760
4.5483694 -15.088943 0.74357843 4294901760
10.332147 -15.066093 0.70293307 4293977740
-0.36826244 -14.959479 0.71635246 4294901760
-0.10978175 -14.967625 0.71648926 4294901760
-0.039234273 -14.96396 0.71635246 4293977740
0.054843143 -14.975923 0.7167629 4293977740
0.1253536 -14.966485 0.71645498 4293977740
0.24318592 -14.983027 0.7170707 4293977740
0.33747393 -14.987198 0.71727592 4293977740
0.43178108 -14.989794 0.71744698 4293977740
0.52617598 -14.992777 0.7176522 4293977740
0.69137979 -14.994072 0.71792585 4294901760
0.85631955 -14.987559 0.71799421 4293977740
5.9633865 -14.96494 0.75554961 4293977740
10.334084 -14.967685 0.70075202 4293977740
-1.0905744 -14.848078 0.71375299 4294901760
-0.60112983 -14.897938 0.71450543 4294901760
5.9797215 -14.803319 0.75062436 4293977740
-8.2531481 -14.707511 0.78140748 4294901760
13.736694 -14.78548 0.75511491 4293977740
13.810347 -14.771495 0.75620544 4293977740
-8.2796898 -14.646679 0.78003931 4294901760
-8.1556969 -14.695515 0.77942365 4294901760
-8.0854454 -14.677257 0.77771348 4294901760
5.9769635 -14.664227 0.74617791 4293977740
13.823616 -14.646565 0.75396985 4293977740
-8.3278246 -14.544503 0.77781606 4294901760
5.9726267 -14.523453 0.74166304 4293977740
13.802188 -14.531948 0.75129807 4293977740
-6.3198009 -14.441258 0.74371523 4294901760
-2.4467707 -14.462695 0.70622826 4294901760
-8.3292313 -14.36265 0.7724461 4293977740
5.9643874 -14.37547 0.73687452 4293977740
13.759487 -14.395901 0.74780834 4293977740
-8.314991 -14.234488 0.76841009 4293977740
-6.3369479 -14.296108 0.73940563 4294901760
-5.8135142 -14.247347 0.73085475 4293977740
5.9729524 -14.207266 0.73167562 4293977740
13.743996 -14.244469 0.74453676 4293977740
-8.3343353 -14.114178 0.76519501 4293977740
-6.3265629 -14.151952 0.73475391 4294901760
5.9932666 -14.131426 0.72955501 4293977740
13.694103 -14.10356 0.74082899 4293977740
-6.3194299 -14.01712 0.73044431 4294901760
-5.8280959 -14.092254 0.72613466 4293977740
-8.3134203 -13.977872 0.76081693 4293977740
-5.8102493 -13.924349 0.72059369 4293977740
13.64346 -13.963104 0.73712116 4293977740
-8.3152895 -13.881318 0.75801229 4293977740
-6.3357921 -13.878004 0.72633988 4293977740
13.606069 -13.837383 0.73395866 4293977740
-8.3011885 -13.759189 0.7541815 4293977740
-5.7975841 -13.771444 0.71560001 4293977740
13.612052 -13.713438 0.73166853 4293977740
-8.3130074 -13.632794 0.75069278 4293977740
-5.9343905 -13.673836 0.71436864 4293977740
13.604271 -13.619616 0.72970557 4293977740
-10.840575 -13.552307 0.79816717 4293977740
-8.2942429 -13.506018 0.74665672 4293977740
-5.7999334 -13.596777 0.71012741 4293977740
13.600283 -13.530216 0.72790617 4293977740
-8.2883978 -13.401615 0.74351001 4293977740
-5.7804637 -13.43333 0.7047233 4293977740
13.609854 -13.412576 0.72583419 4293977740
-8.3208189 -13.313203 0.74152619 4293977740
13.601995 -13.320724 0.72392577 4293977740
13.599422 -13.234643 0.72223544 4293977740
13.612764 -13.123165 0.72038156 4293977740
-6.3161016 -13.06352 0.70082408 4293977740
13.606347 -13.034631 0.71858221 4293977740
-8.284997 -12.936136 0.72996545 4294901760
13.605291 -12.951786 0.7170009 4293977740
-8.2661715 -12.817554 0.72620302 4294901760
13.593695 -12.859446 0.71503794 4293977740
-8.2825079 -12.754601 0.72469813 4293977740
13.610435 -12.754173 0.71340215 4293977740
-8.2933102 -12.640138 0.72161978 4293977740
13.610982 -12.674508 0.71192992 4293977740
-8.2796841 -12.533044 0.71830207 4294901760
13.597975 -12.58273 0.70996702 4293977740
-8.2838678 -12.411496 0.71491593 4294901760
13.61885 -12.483334 0.70854932 4293977740
-8.2727823 -12.310665 0.71183759 4294901760
13.602827 -12.351062 0.70579576 4293977740
13.61405 -12.205847 0.70336932 4293977740
-8.2601013 -12.146681 0.70694649 4293977740
13.603131 -12.119059 0.70156991 4293977740
-8.2550726 -11.996389 0.70260262 4293977740
14.002952 -11.782512 0.70380551 4293977740
-9.1367502 -11.63934 0.71064043 4293977740
-9.0322113 -11.618303 0.70787001 4293977740
-8.9554615 -11.632192 0.70663869 4293977740
-8.8576479 -11.61772 0.70421022 4293977740
14.022132 -11.648885 0.70186979 4293977740
-8.7517176 -11.591478 0.70130295 4293977740
10.248277 -11.465127 0.73051268 4293977740
10.190837 -11.293726 0.72483492 4293977740
10.183246 -11.144024 0.72086728 4293977740
10.20306 -11.06071 0.71922559 4293977740
10.198537 -10.917636 0.71553159 4293977740
10.206422 -10.994962 0.7176522 4293977740
10.215526 -10.833159 0.71382141 4293977740
10.216032 -10.732152 0.71132457 4293977740
10.228402 -10.610995 0.70862246 4293977740
13.681714 -10.699513 0.79864603 4293977740
13.705088 -10.614155 0.79748309 4293977740
10.225437 -10.541572 0.70684391 4293977740
13.703472 -10.544283 0.79597813 4294901760
16.549454 -10.516263 0.73946577 4293977740
16.826389 -10.508003 0.74573636 4293977740
16.967968 -10.522666 0.74922603 4293977740
17.117825 -10.504414 0.75244308 4294901760
17.259918 -10.517306 0.75593281 4294901760
10.223124 -10.440529 0.7043128 4293977740
13.696786 -10.470892 0.79426795 4293977740
14.995548 -10.444767 0.70309669 4293977740
15.116981 -10.459158 0.7060411 4293977740
15.238651 -10.472887 0.70898551 4293977740
15.372055 -10.458436 0.71176636 4293977740
15.492547 -10.469544 0.71465623 4293977740
15.611599 -10.478879 0.71749163 4293977740
15.750646 -10.465063 0.72043604 4293977740
15.878473 -10.478426 0.72354406 4293977740
16.003199 -10.488894 0.72654307 4293977740
16.147968 -10.475513 0.72965109 4293977740
16.278191 -10.487664 0.7328136 4293977740
16.406965 -10.498019 0.73592162 4293977740
16.69014 -10.495754 0.74241024 4293977740
17.286037 -10.45888 0.75571471 4294901760
10.234982 -10.322237 0.70171338 4293977740
13.691367 -10.398851 0.7926262 4293977740
13.703437 -10.30664 0.79105282 4293977740
17.279423 -10.380793 0.75446063 4294901760
10.240487 -10.263198 0.70041364 4293977740
13.703686 -10.239657 0.78968465 4294901760
17.290123 -10.239874 0.75274301 4294901760
13.681159 -10.156132 0.78735888 4294901760
13.790135 -10.136441 0.78995836 4294901760
13.89625 -10.147178 0.79310501 4294901760
14.005807 -10.159692 0.79638857 4293977740
14.129914 -10.148267 0.7996037 4293977740
17.290821 -10.130413 0.75124353 4294901760
17.302071 -10.027719 0.75009847 4294901760
17.305784 -9.957324 0.74922603 4294901760
17.290142 -9.8760719 0.74775386 4294901760
17.307425 -9.7421913 0.74636346 4294901760
17.303429 -9.6327295 0.74480945 4294901760
10.962269 -9.5036497 0.70075572 4293977740
11.028471 -9.5004091 0.70239747 4293977740
11.209631 -9.5037918 0.70718592 4293977740
17.293386 -9.5560284 0.74355525 4294901760
11.126419 -9.4936476 0.70479167 4293977740
11.257805 -9.4839516 0.7080068 4293977740
17.313683 -9.4609747 0.74279189 4294901760
17.30619 -9.3511887 0.7411834 4293977740
17.317902 -9.2173004 0.73973846 4294901760
17.31851 -9.147872 0.73886603 4294901760
17.311771 -9.0748062 0.73777544 4294901760
17.320484 -8.94104 0.73630333 4294901760
17.321526 -8.8383579 0.73504919 4293977740
17.32374 -8.7367754 0.73384959 4294901760
17.195654 -8.6042643 0.72910577 4294901760
17.186811 -8.5323715 0.72801524 4294901760
17.192024 -8.4677057 0.7273609 4294901760
17.201197 -8.3716831 0.72643399 4294901760
17.332254 -8.3348532 0.72921479 4294901760
17.340967 -8.2051964 0.72790617 4294901760
17.339529 -8.1379004 0.72708827 4294901760
17.332405 -8.0681553 0.72610682 4294901760
17.345482 -7.9419956 0.724989 4294901760
17.343607 -7.8423905 0.72381669 4294901760
17.348104 -7.778841 0.72321695 4293977740
17.353512 -7.6832018 0.72228998 4293977740
14.412266 -1.7678943 0.70116615 4293977740
17.721401 4.0692501 0.70058846 4293977740
17.716322 4.1267033 0.70080656 4293977740
17.719191 4.2448931 0.70162445 4293977740
17.724274 4.3344684 0.70233327 4293977740
17.725756 4.4530263 0.70315117 4293977740
17.722038 4.5409307 0.70364195 4294901760
17.726982 4.6610527 0.70459616 4294901760
17.736723 4.753015 0.70549577 4293977740
17.742933 4.814456 0.70609564 4293977740
17.733505 4.9317102 0.70669544 4293977740
17.740883 5.0238767 0.70756781 4294901760
17.741596 5.1446886 0.70849478 4294901760
17.744038 5.2361031 0.70925814 4294901760
17.74523 5.3578491 0.71023965 4294901760
17.752316 5.4513326 0.71116656 4294901760
17.759935 5.5147462 0.71187544 4294901760
15.01343 5.6840353 0.75363421 4293977740
17.758266 5.6367764 0.71282965 4293977740
14.171129 5.7620754 0.72777641 4294901760
14.306488 5.7258487 0.7316072 4294901760
14.443246 5.7282257 0.73598528 4293977740
14.587275 5.7061729 0.74029487 4293977740
14.729918 5.7089224 0.74487817 4293977740
14.865264 5.7079539 0.74918777 4293977740
17.762943 5.730474 0.71372932 4293977740
14.170669 5.8529172 0.72893929 4294901760
17.762655 5.853816 0.71476531 4293977740
14.172298 5.9451199 0.73020488 4293977740
17.767139 5.9481969 0.71569228 4293977740
14.175857 6.0648775 0.73191506 4293977740
17.771105 6.0116372 0.71634656 4293977740
14.182883 6.147161 0.73324895 4293977740
17.771709 6.1365175 0.71746433 4293977740
14.191475 6.2572002 0.73502755 4293977740
17.781324 6.2336817 0.71858221 4293977740
14.196501 6.3395529 0.73632729 4293977740
17.779444 6.3587065 0.71967268 4294901760
14.191824 6.4448147 0.73766124 4293977740
17.781273 6.4539652 0.72059965 4294901760
14.209416 6.5338068 0.739474 4293977740
17.784447 6.5500708 0.7215811 4294901760
14.186587 6.6588478 0.74056852 4293977740
14.207439 6.614243 0.74056852 4293977740
17.787085 6.6463642 0.72256267 4293977740
17.830107 8.3772659 0.74197406 4293977740
17.841663 8.4511671 0.74311912 4294901760
17.847521 8.5226383 0.74410057 4294901760
17.844879 8.6594296 0.74565452 4293977740
17.855089 8.7684593 0.7472086 4293977740
17.854769 8.8729229 0.74846268 4293977740
17.859005 8.9450426 0.74944419 4293977740
17.866535 9.0190735 0.75053465 4293977740
17.862888 9.1584597 0.75217044 4293977740
17.869293 9.2682304 0.75369722 4293977740
17.879091 9.3446493 0.75489682 4293977740
17.864927 9.4446392 0.75582373 4294901760
17.870483 9.5194769 0.75691432 4294901760
17.886322 9.6000929 0.75833201 4294901760
17.881823 9.7428474 0.76007682 4293977740
17.888321 9.8558607 0.76171261 4293977740
17.885376 9.9643135 0.76307577 4293977740
17.881897 10.036069 0.7639482 4294901760
17.897301 10.11871 0.76542038 4293977740
17.90715 10.198575 0.76672906 4293977740
17.897036 10.30475 0.76792866 4293977740
17.900921 10.381939 0.76907367 4293977740
17.906219 10.460268 0.77027327 4293977740
17.901524 10.570902 0.77169096 4293977740
17.90778 10.650541 0.77294505 4293977740
17.915417 10.731368 0.77425373 4293977740
17.912573 10.844599 0.77578044 4293977740
17.92454 10.928859 0.77725261 4293977740
17.941786 11.055613 0.77946097 4293977740
17.941696 11.250781 0.78226906 4293977740
17.956129 11.377905 0.78445017 4293977740
17.949492 11.492525 0.78597695 4293977740
17.951977 11.573724 0.78723103 4293977740
17.957485 11.657224 0.78859413 4293977740
17.947521 11.771278 0.79006642 4293977740
17.965551 11.863891 0.79186577 4293977740
17.96818 11.946787 0.79317439 4293977740
17.977119 12.03426 0.79470116 4293977740
17.971588 12.1535 0.79639149 4293977740
17.977976 12.240222 0.79786366 4293977740
17.983995 12.327103 0.7993359 4293977740
18.01782 12.583509 0.70106208 4293977740
18.011745 12.748543 0.70309305 4293977740
18.032768 12.891506 0.70534956 4293977740
18.03758 12.980856 0.7066133 4293977740
18.02631 13.102208 0.70801234 4293977740
18.047255 13.248064 0.71033669 4293977740
18.033442 13.413158 0.71229994 4293977740
18.050386 13.51415 0.71396983 4293977740
18.054102 13.605757 0.71527863 4293977740
18.04225 13.730699 0.71676803 4293977740
18.054535 13.829926 0.71834767 4293977740
18.067957 13.930592 0.71997237 4293977740
18.069866 14.022892 0.72128129 4293977740
18.064907 14.15606 0.72304142 4293977740
18.073679 14.254902 0.72457588 4293977740
4.6432133 14.393541 0.721825 4293977740
5.0704932 14.391742 0.72644246 4293977740
5.24615 14.383974 0.72822106 4293977740
5.3266582 14.393812 0.72948658 4293977740
5.4275289 14.388109 0.73051268 4293977740
5.5391097 14.37549 0.73147035 4293977740
5.6555419 14.374153 0.73287278 4293977740
5.7375708 14.383599 0.73420668 4293977740
5.8424501 14.383377 0.73554063 4293977740
5.9550138 14.368492 0.73653245 4293977740
6.0493712 14.372452 0.73790061 4293977740
6.1400356 14.366516 0.73892677 4293977740
6.2609143 14.367714 0.74060273 4293977740
6.3402066 14.364608 0.74159461 4293977740
6.4434032 14.353656 0.74268913 4293977740
6.5257926 14.355938 0.74392045 4293977740
6.6342549 14.354575 0.74542546 4293977740
6.7550735 14.348919 0.74699879 4294901760
6.8561673 14.358551 0.74877739 4294901760
6.929811 14.338674 0.74925619 4294901760
18.080442 14.35269 0.72606528 4293977740
1.940123 14.496964 0.70479167 4293977740
2.0564115 14.499113 0.70540732 4293977740
2.1484852 14.492809 0.70564681 4294901760
2.251169 14.479216 0.70571518 4293977740
2.3552146 14.473818 0.7060914 4293977740
2.4726582 14.477535 0.70687807 4293977740
2.5652964 14.47156 0.7072202 4293977740
2.659565 14.473857 0.70787001 4293977740
2.7292151 14.469004 0.70814365 4293977740
2.8460112 14.463801 0.70872509 4293977740
2.9521649 14.462885 0.70940912 4293977740
3.058408 14.461246 0.71009326 4293977740
3.1639476 14.454868 0.71064049 4293977740
3.2695394 14.447769 0.71118772 4293977740
3.3654249 14.449358 0.71197444 4293977740
3.4353096 14.441101 0.71224803 4293977740
3.5564713 14.445709 0.71337676 4293977740
3.6623886 14.435695 0.71392405 4293977740
3.7716124 14.437525 0.71491599 4293977740
3.8426661 14.431205 0.71532637 4293977740
3.9390173 14.427979 0.71607882 4293977740
4.0470781 14.421893 0.71686548 4293977740
4.1574564 14.422731 0.71792585 4293977740
4.2558551 14.423202 0.71888351 4293977740
4.3294902 14.422119 0.7195676 4293977740
4.4520121 14.418245 0.72066212 4293977740
4.5470076 14.404291 0.72117519 4293977740
4.6964331 14.403598 0.7227143 4293977740
4.7478805 14.407769 0.72339839 4293977740
4.84624 14.401326 0.72425354 4293977740
4.9482656 14.404638 0.72548479 4293977740
5.149981 14.400665 0.72763962 4293977740
18.070278 14.484069 0.72773516 4293977740
-1.4335344 14.599993 0.70629662 4293977740
-1.317724 14.598859 0.70588619 4293977740
-1.2020198 14.596808 0.70547575 4293977740
-0.92537999 14.596907 0.70479167 4293977740
-0.83294272 14.59048 0.70438123 4293977740
-0.76390558 14.589234 0.70421022 4293977740
-0.64898098 14.587795 0.70397079 4293977740
-0.54554212 14.584006 0.7036972 4293977740
-0.44220272 14.580529 0.70345771 4293977740
-0.33886623 14.572278 0.70308149 4293977740
-0.23586643 14.575331 0.7031157 4293977740
-0.14422174 14.571548 0.7029447 4293977740
-0.075478211 14.562052 0.70260268 4293977740
0.038897619 14.565194 0.70270526 4293977740
0.13037655 14.562663 0.70263684 4293977740
0.24465597 14.554195 0.70239747 4293977740
0.34733215 14.544087 0.70212382 4293977740
0.45017189 14.54229 0.70215803 4293977740
0.56448776 14.541301 0.70226061 4293977740
0.63283885 14.534503 0.70212382 4293977740
0.74736953 14.537023 0.70239753 4293977740
0.83880502 14.534083 0.70246589 4293977740
0.95292896 14.526999 0.70246595 4293977740
1.0677006 14.529083 0.7028079 4293977740
1.1360915 14.522877 0.70277369 4293977740
1.2507042 14.520477 0.70301312 4293977740
1.3428048 14.522287 0.70335519 4293977740
1.4574149 14.517259 0.70356035 4293977740
1.5610228 14.516512 0.70390236 4293977740
1.6640657 14.509109 0.70403922 4293977740
1.75567 14.502353 0.70417601 4293977740
1.8252213 14.503819 0.70451808 4293977740
2.0105832 14.503522 0.70533895 4293977740
18.086882 14.591051 0.72954047 4293977740
-2.046083 14.653955 0.71060628 4294901760
-1.9387252 14.640295 0.70964861 4293977740
-1.831551 14.624904 0.70865667 4293977740
-1.7382977 14.625226 0.70828044 4293977740
-1.6671795 14.614375 0.70763057 4293977740
-1.5625467 14.613848 0.70722014 4293977740
-1.480212 14.603371 0.70657027 4293977740
-1.3641537 14.600616 0.7060914 4293977740
-1.2718567 14.602927 0.70588619 4293977740
-1.1330652 14.600299 0.70540738 4293977740
-1.0641005 14.603502 0.70533895 4293977740
-0.99485749 14.60237 0.70513368 4293977740
18.08593 14.684397 0.73084927 4293977740
18.081408 14.822786 0.73274481 4293977740
18.085602 14.921563 0.73423421 4293977740
18.098581 15.028187 0.73599434 4293977740
18.114128 15.137605 0.73784471 4293977740
18.103662 15.274443 0.73965001 4293977740
18.104311 15.372715 0.74109423 4293977740
18.118193 15.482837 0.74294472 4293977740
18.104019 15.619052 0.74470484 4293977740
18.116707 15.729658 0.74655521 4293977740
18.13339 15.844453 0.74854112 4293977740
18.115456 15.980048 0.75025606 4293977740
18.112953 16.079422 0.75170028 4293977740
10.522398 16.220024 0.73199564 4293977740
10.643768 16.238708 0.73423123 4293977740
10.77106 16.209822 0.73548537 4293977740
12.769442 17.549185 0.79660958 4294901760
12.865047 17.506519 0.79720932 4294901760
12.978332 17.54471 0.79988116 4294901760
12.741231 17.62645 0.79786366 4294901760
12.83122 19.678934 0.73527217 4293977740
12.852273 21.748415 0.7752142 4293977740
13.084894 21.984732 0.78248048 4293977740
12.95977 22.65731 0.79416966 4294901760
13.061773 22.670227 0.79556882 4294901760
13.15697 22.670609 0.79665196 4294901760
13.290933 22.654945 0.79787052 4294901760
12.907245 22.730968 0.79502726 4294901760
18.423637 25.932844 0.70241755 4293977740
18.445972 26.137552 0.7052291 4293977740
18.428101 26.37491 0.70810318 4293977740
18.298788 29.210398 0.74393499 4293977740
18.26193 29.355993 0.74555945 4293977740
18.220114 29.494852 0.74705899 4293977740
18.110168 29.628132 0.74793369 4293977740
18.054401 29.746389 0.74905831 4293977740
17.992878 29.856047 0.7500267 4293977740
17.882757 29.992006 0.75096393 4293977740
17.809874 30.084156 0.75161999 4293977740
17.74267 30.186481 0.7524634 4293977740
17.616308 30.297421 0.75296324 4293977740
17.530054 30.368191 0.75324446 4293977740
17.454479 30.457794 0.75386918 4293977740
17.369606 30.531588 0.75421286 4293977740
17.131231 30.670555 0.75427532 4293977740
17.223564 30.609615 0.75415033 4293977740
17.043537 30.739956 0.75455648 4293977740
15.088577 30.888424 0.74249804 4293977740
15.253485 30.856405 0.74318528 4293977740
15.379815 30.867378 0.74421614 4293977740
15.504599 30.874279 0.7451846 4293977740
15.67531 30.850773 0.7460593 4293977740
15.805009 30.865437 0.74718392 4294901760
16.688322 30.895599 0.7540254 4293977740
16.793909 30.858824 0.75430655 4293977740
16.889803 30.804163 0.75427532 4293977740
16.430153 30.997458 0.75352556 4293977740
16.541597 30.972143 0.75399417 4293977740
16.213747 31.059324 0.75280708 4293977740
16.328951 31.041849 0.75340062 4293977740
16.058933 31.119398 0.75252593 4294901760
9.4604759 -26.242239 0.83465326 4293977740
9.4626398 -25.992638 0.82937276 4293977740
9.4908247 -24.968815 0.807935 4293977740
9.5998917 -22.625883 0.8750186 4293977740
8.6311398 -22.576759 0.86389524 4293977740
9.5924549 -22.411734 0.86956602 4293977740
9.6075125 -22.157082 0.86334997 4293977740
9.6333561 -21.562489 0.84879142 4293977740
9.6461592 -21.409933 0.84513813 4293977740
9.6572771 -21.255684 0.84143031 4293977740
9.6583824 -21.081577 0.83712274 4293977740
13.359085 -21.091219 0.88559675 4293977740
9.7047482 -20.921513 0.8336876 4294901760
13.352291 -20.93445 0.88188899 4293977740
13.348962 -20.784664 0.87839925 4293977740
9.7169218 -20.606823 0.82605386 4294901760
13.379394 -20.617477 0.8750186 4293977740
9.7606554 -20.448879 0.8226732 4294901760
13.373133 -20.466484 0.87147444 4293977740
13.384702 -20.344143 0.86885715 4293977740
19.442446 -19.004162 0.81867647 4293977740
19.751183 -19.004612 0.82368612 4293977740
19.881666 -19.010109 0.82589757 4293977740
20.034143 -19.035616 0.82878602 4293977740
20.200857 -19.013556 0.83117807 4293977740
20.346722 -19.030502 0.83384085 4293977740
20.482634 -19.037199 0.83618772 4293977740
20.657505 -19.01894 0.83880544 4293977740
20.805742 -19.034845 0.84151328 4293977740
20.952803 -19.048666 0.84417617 4293977740
21.133041 -19.031252 0.84692919 4293977740
21.288164 -19.050014 0.84981763 4293977740
21.43165 -19.057375 0.85234511 4293977740
21.597885 -19.083855 0.85554945 4293977740
21.76738 -19.051588 0.85794139 4294901760
21.884501 -19.032921 0.85965645 4294901760
18.594208 -18.993162 0.80495632 4293977740
18.749626 -18.972105 0.80707753 4293977740
18.876879 -18.981094 0.8092438 4293977740
19.012867 -18.997942 0.81168103 4293977740
19.16477 -18.969965 0.81366682 4293977740
19.308453 -18.99231 0.8163296 4293977740
19.609425 -18.987366 0.82111359 4293977740
21.871513 -18.901384 0.85749006 4294901760
21.998346 -18.830582 0.85861838 4294901760
22.077208 -18.778198 0.85920513 4294901760
22.085659 -18.666203 0.85771573 4294901760
13.473384 -18.391758 0.8264901 4294901760
13.589584 -18.368277 0.82785326 4294901760
13.605492 -18.269323 0.82594484 4294901760
13.58619 -18.12402 0.82245511 4293977740
13.673857 -18.062984 0.82256418 4293977740
15.893012 -18.000242 0.85958761 4293977740
16.009167 -18.017542 0.86204135 4293977740
16.148563 -18.002977 0.86427695 4293977740
16.270607 -18.024946 0.86694872 4293977740
16.376831 -18.028549 0.86896616 4293977740
16.499409 -18.049387 0.871638 4293977740
16.654705 -18.047911 0.87447339 4293977740
13.686979 -17.962641 0.82060117 4294901760
15.634579 -17.990076 0.85473478 4293977740
15.775809 -17.980885 0.85707945 4293977740
13.648583 -17.795706 0.81634814 4294901760
13.65685 -17.690964 0.81422162 4294901760
13.727121 -17.55278 0.81242228 4294901760
13.775074 -17.443935 0.8108955 4293977740
13.753824 -17.248962 0.80636978 4293977740
13.697991 -17.068327 0.80157143 4293977740
-6.4012995 -16.204012 0.800493 4293977740
-6.3510857 -16.225901 0.80056137 4293977740
10.28108 -16.224333 0.86158043 4294901760
10.357859 -16.232357 0.86322212 4294901760
10.432626 -16.236702 0.86472708 4294901760
10.542834 -16.239286 0.86684769 4294901760
10.658253 -16.248669 0.86927617 4294901760
6.9510112 -16.13269 0.80541825 4293977740
7.0540781 -16.127222 0.80664957 4293977740
7.1233239 -16.147015 0.80822295 4293977740
7.2476339 -16.152943 0.81013834 4293977740
7.3427439 -16.160465 0.81171173 4293977740
7.4495211 -16.158802 0.81318247 4293977740
7.5573654 -16.158363 0.81472164 4293977740
7.6217737 -16.163448 0.8158161 4293977740
7.7374735 -16.144938 0.81694484 4293977740
11.493512 -15.685113 0.86972082 4293977740
10.325873 -15.583198 0.8439998 4293977740
11.527989 -15.577806 0.86746335 4293977740
10.333454 -15.436457 0.83996379 4293977740
11.525435 -15.472654 0.86452186 4293977740
10.340478 -15.342645 0.83743268 4293977740
11.516327 -15.359686 0.86123836 4293977740
10.344766 -15.245641 0.83476484 4293977740
11.540232 -15.24157 0.85850209 4293977740
10.370066 -15.129191 0.83196014 4293977740
11.539507 -15.141715 0.85576582 4293977740
10.365217 -15.020936 0.82881349 4293977740
11.526084 -15.026173 0.85234547 4293977740
10.366645 -14.922699 0.82607722 4293977740
11.523059 -14.925089 0.84954071 4293977740
10.386231 -14.80176 0.82306725 4293977740
11.552638 -14.818656 0.8472833 4293977740
10.389923 -14.708716 0.8205362 4293977740
10.386168 -14.606027 0.81759471 4293977740
11.533109 -14.65111 0.84235805 4293977740
10.378377 -14.498641 0.814448 4293977740
11.551338 -14.486238 0.83832204 4293977740
10.386738 -14.367048 0.81095922 4293977740
11.549169 -14.390706 0.83572257 4293977740
10.397647 -14.287529 0.80897546 4293977740
11.550282 -14.299991 0.83332831 4293977740
11.571987 -14.1897 0.83086568 4293977740
11.564424 -14.090004 0.82806093 4293977740
11.555075 -13.988955 0.82518786 4293977740
11.550326 -13.894247 0.82258838 4293977740
11.582206 -13.799905 0.82080984 4293977740
11.575224 -13.660648 0.81701326 4293977740
11.597629 -13.514164 0.81369549 4293977740
11.595533 -13.426295 0.81136972 4293977740
11.599566 -13.346106 0.8093859 4293977740
11.616113 -13.238778 0.80699164 4293977740
11.623187 -13.163314 0.80521303 4293977740
11.613948 -13.07003 0.80261356 4293977740
13.684705 -11.411509 0.8140375 4294901760
13.680423 -11.335361 0.81225896 4294901760
13.694337 -11.274573 0.81130123 4294901760
13.622811 -11.144326 0.8065812 4293977740
13.659864 -11.032156 0.80514461 4293977740
13.688264 -10.948999 0.80411857 4293977740
13.695786 -10.849688 0.80220318 4293977740
13.693638 -10.778227 0.80062985 4293977740
16.029856 -10.509005 0.86021221 4293977740
16.153324 -10.517365 0.8639062 4293977740
16.300245 -10.503795 0.86787385 4293977740
16.430893 -10.514894 0.87184143 4293977740
16.561771 -10.525275 0.87580901 4293977740
16.711098 -10.509766 0.87984502 4293977740
16.850929 -10.523781 0.88415468 4293977740
16.99781 -10.541222 0.88873792 4293977740
17.147892 -10.522554 0.89277393 4294901760
17.28507 -10.53194 0.89694673 4294901760
15.135564 -10.477092 0.83421761 4293977740
15.247538 -10.483741 0.83750117 4293977740
15.384432 -10.471256 0.84112668 4293977740
15.510074 -10.485435 0.84495753 4293977740
15.635953 -10.498927 0.84878826 4293977740
15.773561 -10.483645 0.85241383 4293977740
15.90159 -10.496675 0.85631305 4293977740
17.352301 -10.498235 0.89831489 4294901760
14.836649 -10.33983 0.82313567 4293977740
17.352587 -10.350218 0.89571548 4294901760
17.366766 -10.248018 0.89434731 4293977740
14.239912 -10.159431 0.80288726 4293977740
14.353384 -10.172314 0.80630755 4293977740
14.458896 -10.178841 0.8093859 4293977740
17.360905 -10.171227 0.89284235 4293977740
17.337681 -10.048303 0.89003766 4293977740
17.350979 -9.9471359 0.88870376 4293977740
17.375715 -9.8168411 0.88723302 4293977740
17.33843 -9.7241631 0.88456511 4293977740
17.37064 -9.6706142 0.88463354 4294901760
17.367672 -9.5976696 0.8833338 4294901760
17.359951 -9.451685 0.88070011 4293977740
17.369997 -9.3513041 0.87936616 4293977740
17.385624 -9.2543583 0.87827164 4293977740
17.381008 -9.1819973 0.8769719 4294901760
17.365549 -9.0521822 0.87444091 4293977740
17.383087 -8.9401846 0.8732096 4293977740
17.388435 -8.8396664 0.87180722 4294901760
17.258541 -8.6378746 0.86472708 4293977740
17.239017 -8.5605612 0.86294854 4294901760
17.246246 -8.4463577 0.86144358 4294901760
17.371346 -8.3557682 0.86394042 4294901760
17.402729 -8.2366714 0.86315376 4294901760
17.397932 -8.1010857 0.86103314 4293977740
17.410416 -8.1734877 0.86246967 4293977740
17.408655 -8.0065174 0.86000699 4293977740
17.408247 -7.9402094 0.85904932 4293977740
17.407145 -7.8409138 0.85761279 4293977740
17.417694 -7.714427 0.8561762 4293977740
17.399727 -7.641242 0.85460287 4293977740
17.396139 -7.5746093 0.85357678 4293977740
17.523558 -4.0177984 0.8195101 4293977740
17.517887 -3.9297495 0.81865501 4293977740
17.533466 -3.817698 0.81834722 4293977740
17.533636 -3.7313135 0.81773156 4293977740
17.537344 -3.6458173 0.81725264 4293977740
17.545181 -3.5326281 0.81673968 4293977740
17.546946 -3.4470313 0.8162266 4293977740
17.553175 -3.3624392 0.81588453 4293977740
17.579813 -2.0107064 0.80979633 4293977740
17.605177 -2.0696123 0.81089085 4293977740
17.582067 -1.9550318 0.80965948 4293977740
17.591 -1.8442101 0.8095569 4293977740
17.58931 -1.7324007 0.80911219 4293977740
17.601858 -1.6220266 0.80918062 4293977740
17.596914 -1.5658498 0.80883867 4293977740
17.613695 -1.5115675 0.80924904 4293977740
17.602692 -1.4271212 0.80863339 4293977740
17.605213 -1.3438579 0.80849659 4293977740
17.605391 -1.2604595 0.80829138 4293977740
17.60895 -1.1495585 0.80815458 4293977740
17.614193 -1.0665703 0.80815458 4293977740
17.620525 -0.95587564 0.80815458 4293977740
17.626852 -0.87292737 0.80822295 4293977740
17.627974 -0.76198739 0.80808616 4293977740
17.631392 -0.67891341 0.80808616 4293977740
17.630291 -0.56796974 0.80791515 4293977740
17.633512 -0.45717865 0.80791509 4293977740
17.635057 -0.34635961 0.80788088 4293977740
17.640471 -0.26331258 0.80801773 4293977740
17.641798 -0.15246373 0.80801779 4293977740
17.646297 -0.06933704 0.80815458 4293977740
17.649296 0.069281451 0.80825722 4293977740
17.649796 0.15245321 0.80829138 4293977740
17.654636 0.24958278 0.80849659 4293977740
17.651049 0.34659404 0.80842817 4293977740
17.669807 0.44418475 0.80914646 4293977740
17.67025 0.56921875 0.80928326 4293977740
17.66839 0.65250778 0.80931753 4293977740
17.678894 0.76420367 0.80983055 4293977740
17.680111 0.84773028 0.81000149 4293977740
17.684393 0.95936298 0.81034362 4293977740
17.685684 1.0430483 0.81054878 4293977740
17.686558 1.1267631 0.81075406 4293977740
17.702869 1.1836891 0.81143808 4293977740
17.697077 1.2950375 0.81150651 4293977740
17.711027 1.2401503 0.81184852 4293977740
17.70871 1.379854 0.81212217 4293977740
17.702988 1.4633672 0.81215638 4293977740
17.708395 1.5759132 0.8126694 4293977740
17.703733 1.659628 0.81277204 4293977740
17.707891 1.7723505 0.81328505 4293977740
17.702305 1.8560926 0.81338775 4293977740
17.698349 1.9400437 0.8135587 4293977740
17.711597 2.054234 0.81444794 4293977740
17.709677 2.138654 0.81472164 4293977740
17.717676 2.2526829 0.81547409 4293977740
17.732641 2.3395896 0.81636339 4293977740
17.722519 2.4516482 0.8165344 4293977740
17.735443 2.567153 0.81752634 4293977740
17.726891 2.6797378 0.81779993 4293977740
17.7328 2.7661874 0.8184498 4293977740
17.721994 2.8786974 0.81868917 4293977740
17.734816 2.9666772 0.81961268 4293977740
17.726679 3.0799351 0.81998891 4293977740
17.746368 3.1696482 0.82118607 4293977740
17.746759 3.2849309 0.82190436 4293977740
17.755989 3.3443925 0.82258838 4293977740
17.751781 3.4303145 0.82299888 4293977740
17.751455 3.546133 0.82375133 4293977740
17.75312 3.6335897 0.8244012 4293977740
17.748539 3.7489929 0.82505107 4293977740
17.768734 3.8408999 0.82638502 4293977740
17.767046 3.9282668 0.82696646 4293977740
17.771217 4.0465236 0.82799256 4293977740
17.763651 4.1329513 0.828403 4293977740
17.761597 4.2503414 0.82925808 4293977740
17.773424 4.3418603 0.83038682 4293977740
17.776775 4.4612827 0.83148134 4293977740
17.784616 4.5524712 0.83250743 4293977740
17.787636 4.6128569 0.83312309 4293977740
17.780478 4.7304831 0.83390975 4293977740
17.782118 4.8207822 0.83476484 4293977740
17.788992 4.9429092 0.83609879 4293977740
17.803019 5.0373373 0.83743268 4293977740
17.794979 5.1560936 0.83828777 4293977740
17.790636 5.2458444 0.83900613 4293977740
17.792509 5.3377042 0.83996379 4293977740
17.811083 5.4349747 0.84153712 4293977740
17.813921 5.5277734 0.84256327 4293977740
17.806427 5.6483936 0.84355509 4293977740
17.805313 5.7405457 0.84447867 4293977740
17.814404 5.8673973 0.84612042 4293977740
17.822584 5.9633641 0.8474201 4293977740
17.816984 6.055038 0.84824103 4293977740
17.818443 6.1494112 0.84933555 4293977740
17.842091 6.2518749 0.85125095 4293977740
17.844425 6.3473272 0.85241383 4293977740
17.840593 6.4408989 0.8533715 4293977740
17.827929 6.5632381 0.85439765 4293977740
17.83794 6.6626544 0.85590261 4293977740
17.900814 8.4785328 0.88210243 4294901760
17.908337 8.5511427 0.88340217 4294901760
17.893024 8.647644 0.88435984 4293977740
17.88732 8.7143421 0.88518077 4293977740
17.911608 8.848505 0.88795125 4293977740
17.908295 8.9697313 0.88969558 4293977740
17.913912 9.0431023 0.89099532 4293977740
17.917347 9.1511211 0.89277393 4293977740
17.89673 9.2828941 0.89421046 4294901760
17.925808 9.2266188 0.89421046 4293977740
17.892269 9.3520651 0.89516824 4293977740
17.930992 9.4802971 0.89838332 4293977740
17.932854 9.5535345 0.89961463 4293977740
17.976698 12.446945 0.80102623 4293977740
17.988392 12.538735 0.80271649 4293977740
17.993137 12.626138 0.80418873 4293977740
17.99058 12.751178 0.80609715 4293977740
17.9944 12.838949 0.80756938 4293977740
18.009233 12.935 0.80942327 4293977740
18.015535 13.025428 0.81100458 4293977740
18.010517 13.151373 0.81291294 4293977740
18.019091 13.244542 0.81460327 4293977740
18.017609 13.330764 0.81596643 4293977740
18.010689 13.457343 0.81787491 4293977740
18.017895 13.551058 0.81956518 4293977740
18.034266 13.652173 0.82158267 4293977740
18.022198 13.777011 0.82338208 4293977740
18.02482 13.86886 0.82496333 4293977740
18.039694 13.97065 0.82698083 4293977740
18.044636 14.065306 0.82867116 4293977740
18.034763 14.194626 0.83063406 4293977740
18.056133 14.349656 0.83371484 4293977740
18.047504 14.528524 0.83657748 4293977740
18.053085 14.626621 0.83837682 4293977740
18.065966 14.731224 0.84044886 4293977740
18.047333 14.858066 0.8422482 4293977740
18.059122 14.963093 0.84432024 4293977740
12.548827 15.052624 0.87491971 4293977740
18.076576 15.073454 0.84661031 4293977740
12.540005 15.187207 0.87827164 4293977740
18.085844 15.177664 0.84862787 4293977740
12.546663 15.293046 0.88121319 4293977740
18.078243 15.316937 0.85091794 4293977740
12.559083 15.40683 0.88449675 4293977740
18.086376 15.421585 0.85293543 4293977740
9.9920788 15.557537 0.8370223 4293977740
10.74329 15.573603 0.85172981 4293977740
12.564623 15.513073 0.88743818 4293977740
18.089476 15.522535 0.85478932 4293977740
10.728134 15.656794 0.853782 4293977740
12.561312 15.659514 0.89126903 4293977740
18.078138 15.661215 0.85702491 4293977740
12.564288 15.76462 0.89414209 4293977740
18.089186 15.770414 0.85920596 4293977740
12.580361 15.887148 0.8977676 4293977740
18.089197 15.87062 0.86100531 4293977740
18.086105 16.019251 0.86362261 4293977740
13.143416 17.651241 0.80489761 4294901760
12.736015 17.736162 0.80020833 4294901760
12.676667 17.830168 0.80135334 4293977740
12.6437 17.902536 0.80244392 4293977740
12.640286 18.017401 0.80495209 4293977740
12.651211 18.214582 0.80953228 4293977740
12.643969 18.32658 0.81193149 4293977740
12.679167 18.501333 0.81640267 4293977740
12.68521 18.63521 0.8195107 4293977740
12.663287 18.792519 0.82272774 4293977740
12.688603 19.752245 0.84497458 4293977740
12.696504 19.901487 0.84851873 4293977740
12.727999 20.229445 0.85653418 4293977740
12.809911 20.717934 0.86902076 4293977740
12.819164 20.878962 0.87289214 4293977740
12.785089 21.045013 0.8762728 4293977740
12.806843 21.230494 0.88090754 4293977740
12.824471 21.411173 0.88537866 4293977740
12.801033 21.602001 0.88952273 4293977740
12.813322 21.778166 0.8938303 4293977740
12.83879 21.978762 0.89890128 4293977740
18.308069 22.080376 0.85243535 4293977740
-10.330815 22.27519 0.87436432 4293977740
-10.240785 22.263922 0.8730557 4293977740
18.332577 22.252079 0.85577512 4293977740
14.756409 22.483761 0.812042 4294901760
14.864392 22.494049 0.81357658 4294901760
15.002391 22.471996 0.81488538 4293977740
15.108554 22.477898 0.8163296 4293977740
15.213779 22.481693 0.81772864 4293977740
15.356743 22.464254 0.81921804 4293977740
15.462328 22.466995 0.8206172 4293977740
15.561258 22.459427 0.8217454 4293977740
18.34482 22.410202 0.85870874 4293977740
18.360027 22.573277 0.86177766 4293977740
14.693024 22.775486 0.81678092 4294901760
18.339911 22.767059 0.86489177 4293977740
-4.7241383 22.904547 0.84252083 4293977740
14.710775 22.961365 0.82052684 4293977740
18.356899 22.935482 0.86809623 4293977740
14.728598 23.149258 0.82431793 4293977740
18.374266 23.105793 0.87134564 4293977740
-5.405982 23.244116 0.85555273 4293977740
-5.2547798 23.255159 0.85492563 4293977740
-5.1397672 23.255287 0.85424405 4293977740
-5.0250874 23.255795 0.85358971 4293977740
-4.9499259 23.261686 0.85331708 4293977740
-4.6457052 23.264179 0.85170859 4293977740
12.94992 23.23004 0.80531728 4293977740
-4.5446148 23.329998 0.85293543 4293977740
-4.440937 23.384552 0.8538624 4293977740
12.93774 23.380901 0.80816066 4293977740
13.112746 23.349724 0.80946946 4293977740
14.734719 23.320576 0.82765782 4293977740
18.362797 23.316307 0.87491119 4293977740
-4.3373299 23.441576 0.85487115 4293977740
18.370691 23.47788 0.87788987 4293977740
-4.1621146 23.526108 0.85628885 4293977740
12.909822 23.592533 0.812042 4293977740
-4.0638514 23.619387 0.85833353 4293977740
-3.9485672 23.614609 0.85767919 4293977740
18.382645 23.646059 0.88104916 4293977740
12.90709 23.764818 0.81542695 4293977740
18.362394 23.851322 0.88443398 4293977740
12.928974 23.984867 0.82003045 4293977740
18.390518 24.043972 0.88827026 4293977740
12.897461 24.199127 0.82395697 4293977740
18.403084 24.217934 0.89156485 4293977740
12.880171 24.350931 0.82680023 4293977740
18.383633 24.430681 0.8951304 4293977740
12.951109 24.672905 0.83397627 4293977740
