# .PCD v0.7 - Point Cloud Data file format
VERSION 0.7
FIELDS x y z rgba
SIZE 4 4 4 4
TYPE F F F U
COUNT 1 1 1 1
WIDTH 1112
HEIGHT 1
VIEWPOINT 0 0 0 1 0 0 0
POINTS 1112
DATA ascii
-14.691256 14.212801 -2.0013738 4294901760
-7.6413379 14.218948 -2.0335979 4293977740
-7.5635929 14.234644 -2.0304198 4293977740
-7.4689703 14.272246 -2.0288994 4293977740
-14.604509 14.307611 -2.0018053 4294901760
-10.054689 14.300776 -2.0997107 4293977740
-9.9521837 14.345762 -2.0968194 4293977740
-7.4286432 14.30444 -2.0302813 4293977740
-7.3462715 14.310165 -2.0257211 4293977740
-7.2468662 14.337483 -2.0228193 4293977740
-7.164659 14.342194 -2.018259 4293977740
-7.0409451 14.375767 -2.0148039 4293977740
-6.9679651 14.398103 -2.0131459 4293977740
-6.8847075 14.398587 -2.0081708 4293977740
-9.8624258 14.408793 -2.0969505 4293977740
-9.7622461 14.456523 -2.0947165 4293977740
-9.5904636 14.495064 -2.0863049 4293977740
-6.841979 14.425517 -2.0090001 4293977740
-6.7676425 14.444115 -2.0069275 4293977740
-6.6453476 14.477904 -2.0040252 4293977740
-9.6734066 14.520912 -2.0952423 4293977740
-9.5590582 14.546641 -2.0897222 4293977740
-9.4323273 14.552383 -2.0811791 4293977740
-9.3523989 14.579177 -2.078419 4293977740
-6.572968 14.500056 -2.0026433 4293977740
-9.2542629 14.627566 -2.0768421 4293977740
-9.1495352 14.665265 -2.0736878 4293977740
-9.027297 14.725712 -2.071979 4293977740
-8.9387474 14.736773 -2.0671163 4293977740
-8.8145895 14.79291 -2.0650134 4293977740
-8.8906794 14.814403 -2.0726364 4293977740
-8.7401714 14.853048 -2.0668533 4293977740
-8.6404209 14.870093 -2.0621221 4293977740
-8.5560656 14.913019 -2.0614648 4293977740
-8.4465561 14.966242 -2.0604134 4293977740
-8.3792953 15.011976 -2.0613334 4293977740
-8.2751942 15.046963 -2.0587049 4293977740
-8.1937828 15.066654 -2.0558133 4293977740
-8.051795 15.086849 -2.049242 4293977740
-10.144913 15.171756 -2.0978281 4293977740
-10.085155 15.185351 -2.0950596 4293977740
-8.1273975 15.113822 -2.0571277 4293977740
-8.0155277 15.133074 -2.0523961 4293977740
-7.9136829 15.112765 -2.0437217 4293977740
-7.8382859 15.141941 -2.0425391 4293977740
-7.7672782 15.179622 -2.0426702 4293977740
-7.675015 15.175398 -2.0366247 4293977740
-10.008042 15.224414 -2.0938013 4293977740
-9.9296951 15.261396 -2.0922909 4293977740
-7.6397915 15.224221 -2.0403047 4293977740
-7.5409479 15.235771 -2.035836 4293977740
-7.4213295 15.264669 -2.0322876 4293977740
-7.3077059 15.274369 -2.0268989 4293977740
-7.1912565 15.276962 -2.0205903 4293977740
-9.8282804 15.315146 -2.0910323 4293977740
-9.741148 15.337793 -2.0875087 4293977740
-9.6298647 15.375164 -2.0839849 4293977740
-9.5432339 15.397554 -2.0805874 4293977740
-7.2630906 15.304413 -2.0279503 4293977740
-7.131763 15.337629 -2.024533 4293977740
-7.0461102 15.342244 -2.0203276 4293977740
-6.977035 15.382508 -2.0213788 4293977740
-6.8882027 15.379055 -2.0161216 4293977740
-6.6917181 15.392083 -2.0071843 4293977740
-9.4565926 15.419534 -2.0771894 4293977740
-9.3513222 15.465028 -2.0751755 4293977740
-9.2702217 15.495312 -2.0731623 4293977740
-6.8430872 15.40786 -2.0171731 4293977740
-6.788229 15.41478 -2.0150702 4293977740
-6.6512084 15.431222 -2.0098131 4293977740
-6.5542269 15.439233 -2.0057387 4293977740
-6.4418736 15.477886 -2.0046873 4293977740
-9.1641273 15.538691 -2.0710227 4293977740
-9.0853252 15.572289 -2.0696385 4293977740
-6.2405486 15.542014 -2.0024531 4293977740
-9.0039234 15.601172 -2.067625 4293977740
-8.9401035 15.603539 -2.0638494 4293977740
-8.8507423 15.646368 -2.0629687 4293977740
-8.755456 15.678357 -2.0605772 4293977740
-8.7032862 15.700576 -2.0598226 4293977740
-8.646287 15.713918 -2.0578086 4293977740
-8.5570059 15.726586 -2.0537817 4293977740
-8.4706116 15.743977 -2.0505095 4293977740
-8.3300714 15.778414 -2.0459793 4293977740
-8.2418871 15.791113 -2.0422034 4293977740
-14.883576 15.870335 -2.0290196 4294901760
-14.556399 15.867188 -2.0058322 4294901760
-8.1339073 15.825792 -2.0398126 4293977740
-8.044467 15.834754 -2.0356598 4293977740
-7.9964652 15.863493 -2.0361633 4293977740
-7.7962933 15.898762 -2.0288639 4293977740
-7.9286752 15.91522 -2.0381768 4293977740
-7.8663688 15.915128 -2.0346529 4293977740
-7.720428 15.933535 -2.0286124 4293977740
-7.6333017 15.944641 -2.0250883 4293977740
-7.5177922 15.959987 -2.0205581 4293977740
-7.437079 15.983509 -2.0189221 4293977740
-7.3311548 16.018211 -2.0172861 4293977740
-7.2470307 16.033562 -2.0146432 4293977740
-7.1653576 16.053961 -2.0127556 4293977740
-7.0528221 16.072277 -2.0091057 4293977740
-6.9718947 16.093519 -2.0074701 4293977740
-6.8609676 16.114145 -2.004324 4293977740
-6.7799687 16.134426 -2.0026875 4293977740
-6.6993165 16.155195 -2.0011778 4293977740
-14.878256 16.793053 -2.0989923 4294901760
-9.6042852 16.709253 -2.0981011 4293977740
-9.5310307 16.703152 -2.0930927 4293977740
-9.4706573 16.719204 -2.0911844 4293977740
-9.3513565 16.753225 -2.0877261 4293977740
-14.7675 16.827057 -2.0940676 4294901760
-9.2564487 16.830782 -2.0903497 4293977740
-9.1310863 16.852865 -2.0854602 4293977740
-9.0351152 16.86507 -2.0812864 4293977740
-8.9127159 16.89082 -2.0771127 4293977740
-8.8522139 16.904676 -2.0752044 4293977740
-8.7486286 16.932756 -2.0724616 4293977740
-8.6495342 16.969164 -2.0709114 4293977740
-8.5907936 16.985628 -2.0694804 4293977740
-8.5008593 17.006399 -2.0668569 4293977740
-8.4438543 17.025908 -2.0659027 4293977740
-8.3517017 17.041426 -2.0626831 4293977740
-8.2327747 17.069466 -2.059463 4293977740
-8.1402664 17.082958 -2.0561242 4293977740
-8.0209246 17.108643 -2.0527849 4293977740
-7.9620943 17.122963 -2.0513539 4293977740
-7.8520613 17.132149 -2.0468225 4293977740
-7.7413664 17.138939 -2.042052 4293977740
-7.654016 17.160707 -2.0401442 4293977740
-7.5332537 17.179403 -2.0363281 4293977740
-7.441525 17.1901 -2.0331082 4293977740
-7.3267412 17.221022 -2.031081 4293977740
-7.2331696 17.226053 -2.0272646 4293977740
-7.1187153 17.256508 -2.0253568 4293977740
-7.0531588 17.25123 -2.0217791 4293977740
-6.9489212 17.266674 -2.0187979 4293977740
-6.8351607 17.257627 -2.0127161 4293977740
-6.7396231 17.253571 -2.008065 4293977740
-6.6185975 17.26317 -2.0038912 4293977740
-6.5350575 17.288576 -2.0031757 4293977740
-15.121688 17.574125 -2.0109892 4294901760
-9.5663347 17.715199 -2.0990443 4293977740
-9.436224 17.739819 -2.0944743 4293977740
-9.3451357 17.770042 -2.0926466 4293977740
-9.250329 17.792713 -2.0899045 4293977740
-9.1532383 17.810438 -2.0865915 4293977740
-9.0245981 17.834805 -2.0823643 4293977740
-8.9569683 17.839968 -2.0793939 4293977740
-8.8578243 17.851675 -2.0755095 4293977740
-8.7420111 17.899858 -2.0745955 4293977740
-8.6463737 17.917545 -2.0716252 4293977740
-8.519165 17.941023 -2.0677407 4293977740
-8.451787 17.944315 -2.0647705 4293977740
-8.3811121 17.940159 -2.0608859 4293977740
-8.250041 17.952686 -2.0558589 4293977740
-8.1505995 17.958809 -2.0517461 4293977740
-8.0529213 17.967991 -2.0480905 4293977740
-7.9473319 17.958439 -2.0421495 4293977740
-7.8506989 17.968399 -2.038722 4293977740
-7.7565293 17.983286 -2.0359802 4293977740
-7.6596813 17.991257 -2.0324383 4293977740
-7.534627 18.010633 -2.0288968 4293977740
-7.4360776 18.012833 -2.0247841 4293977740
-7.309351 18.026066 -2.0206709 4293977740
-7.2460432 18.032337 -2.0186145 4293977740
-7.1533275 18.046854 -2.0162153 4293977740
-7.0351219 18.07943 -2.0147302 4293977740
-6.9367409 18.078014 -2.0105033 4293977740
-6.8093996 18.084991 -2.0060475 4293977740
-6.7435522 18.082085 -2.003077 4293977740
-6.6798563 18.084528 -2.000792 4293977740
-15.282056 18.392706 -2.0809319 4293977740
-15.010938 18.358179 -2.0618219 4294901760
-14.831431 18.373198 -2.0520756 4294901760
-15.201356 18.413013 -2.077492 4293977740
-15.003468 18.467005 -2.0694659 4294901760
-14.773314 18.478624 -2.0564711 4294901760
-9.7652245 18.97546 -2.0989566 4293977740
-9.6408587 19.026718 -2.0977705 4293977740
-9.5417175 19.053253 -2.0955062 4293977740
-9.4152088 19.099489 -2.0938888 4293977740
-9.353404 19.125406 -2.0934572 4293977740
-9.2479982 19.137928 -2.0896835 4293977740
-9.1143017 19.167868 -2.0863409 4293977740
-9.0548849 19.198208 -2.0865564 4293977740
-8.9818592 19.199558 -2.0833216 4293977740
-8.8522797 19.236637 -2.0810573 4293977740
-8.7438173 19.239262 -2.0764208 4293977740
-8.6465235 19.265749 -2.0746956 4293977740
-8.5386848 19.268097 -2.0701671 4293977740
-8.4341974 19.277199 -2.0665009 4293977740
-8.3234911 19.271124 -2.0611095 4293977740
-8.2503529 19.267946 -2.0576591 4293977740
-8.1812038 19.273651 -2.0552869 4293977740
-8.0457439 19.290712 -2.0512974 4293977740
-7.9414678 19.29628 -2.0475235 4293977740
-7.8406992 19.309547 -2.0447199 4293977740
-7.7695684 19.308277 -2.0417008 4293977740
-7.6977935 19.304901 -2.0384662 4293977740
-7.5592613 19.309366 -2.0333982 4293977740
-7.4591956 19.32163 -2.0307026 4293977740
-7.3884854 19.318977 -2.0276835 4293977740
-7.2578382 19.340805 -2.0248799 4293977740
-7.1513891 19.333813 -2.0201356 4293977740
-7.0506401 19.341156 -2.0171165 4293977740
-6.9456201 19.335785 -2.0126958 4293977740
-6.8037438 19.321907 -2.0061183 4293977740
-6.7384138 19.330044 -2.0046086 4293977740
-6.6440144 19.352161 -2.0035305 4293977740
-15.465014 19.514524 -2.023488 4294901760
-10.643389 19.758509 -2.0997105 4293977740
-10.543176 19.795292 -2.0981717 4293977740
-10.474435 19.816 -2.0967352 4293977740
-10.342838 19.868153 -2.0951962 4293977740
-10.247747 19.914042 -2.0948884 4293977740
-10.151088 19.956789 -2.0942729 4293977740
-10.044471 19.979462 -2.0914001 4293977740
-14.837852 20.047602 -2.0272467 4294901760
-9.8626614 20.007748 -2.0856545 4293977740
-9.7552223 20.027193 -2.0825765 4293977740
-9.6922617 20.057739 -2.0825765 4293977740
-9.5890808 20.08523 -2.0805244 4293977740
-9.5259371 20.115253 -2.0805244 4293977740
-9.4576283 20.134274 -2.0792933 4293977740
-9.3534632 20.158754 -2.0770361 4293977740
-9.2443094 20.171814 -2.0735476 4293977740
-9.1002655 20.19142 -2.0692387 4293977740
-9.030304 20.205374 -2.0675969 4293977740
-8.957943 20.213623 -2.0653398 4293977740
-8.853838 20.235556 -2.0630825 4293977740
-8.7446136 20.245045 -2.0594916 4293977740
-8.6378336 20.259508 -2.0565162 4293977740
-8.536108 20.285313 -2.0548747 4293977740
-8.4662323 20.297333 -2.0532331 4293977740
-8.3880186 20.288883 -2.0493343 4293977740
-8.2383804 20.286743 -2.0432811 4293977740
-8.1245995 20.280113 -2.0382535 4293977740
-8.0209179 20.29781 -2.0359964 4293977740
-7.9448228 20.291399 -2.0325081 4293977740
-7.8373351 20.297947 -2.0291224 4293977740
-7.6626253 20.318836 -2.0247104 4293977740
-7.552278 20.315571 -2.0204015 4293977740
-7.4489512 20.330379 -2.0181441 4293977740
-7.3497038 20.355865 -2.0171182 4293977740
-7.2130566 20.377281 -2.0144506 4293977740
-7.1489978 20.399841 -2.0144506 4293977740
-7.0751314 20.393993 -2.0113726 4293977740
-6.9693317 20.398857 -2.0082946 4293977740
-6.8604908 20.393719 -2.0041904 4293977740
-15.00307 20.608324 -2.0766485 4293977740
-14.966231 20.69412 -2.0809445 4293977740
-14.915068 20.760469 -2.0830925 4293977740
-14.663173 20.751614 -2.0693099 4293977740
-14.58077 20.773098 -2.0666251 4293977740
-14.567761 20.894026 -2.0748589 4293977740
-10.172688 21.852377 -2.0992775 4293977740
-10.060009 21.879248 -2.0970798 4293977740
-9.9087782 21.912138 -2.0939267 4293977740
-9.8341789 21.930445 -2.0925889 4293977740
-9.7717161 21.975784 -2.0941176 4293977740
-9.6632309 22.010658 -2.0929713 4293977740
-9.5435276 22.019402 -2.0891492 4293977740
-9.4168911 22.011103 -2.0836072 4293977740
-9.3084011 22.044237 -2.0824606 4293977740
-9.2290869 22.049509 -2.0799763 4293977740
-9.153656 22.063686 -2.0784476 4293977740
-9.0412579 22.086321 -2.0763454 4293977740
-8.9598246 22.08511 -2.0732877 4293977740
-8.8747635 22.074375 -2.0692747 4293977740
-8.6828575 22.097095 -2.0644972 4293977740
-8.596015 22.079756 -2.059911 4293977740
-8.4403725 22.089615 -2.0554199 4293977740
-8.3231535 22.094727 -2.0518847 4293977740
-8.7654877 22.103003 -2.0679371 4293977740
-8.2467232 22.102118 -2.0499737 4293977740
-8.1397276 22.133263 -2.0492094 4293977740
-8.0626307 22.138157 -2.0471072 4293977740
-7.9849157 22.140911 -2.0448139 4293977740
-7.8677936 22.142662 -2.041183 4293977740
-7.7537804 22.152229 -2.0384121 4293977740
-7.6031094 22.167597 -2.0350678 4293977740
-7.524446 22.164989 -2.0323925 4293977740
-7.4452271 22.160223 -2.029526 4293977740
-7.3680029 22.160845 -2.0272326 4293977740
-7.2547994 22.168837 -2.0245574 4293977740
-7.141696 22.176222 -2.0218818 4293977740
-6.9514828 22.181299 -2.0168178 4293977740
-6.8318334 22.165356 -2.0119448 4293977740
-6.7203574 22.174446 -2.0096517 4293977740
-6.6455035 22.178288 -2.0079317 4293977740
-6.5746651 22.19524 -2.0075495 4293977740
-6.4604993 22.193493 -2.0043008 4293977740
-6.3824496 22.184994 -2.0014343 4293977740
-14.54166 23.308456 -2.0979776 4293977740
-10.578664 23.467978 -2.0992017 4293977740
-10.508133 23.508371 -2.0999177 4293977740
-10.377972 23.513874 -2.0956218 4293977740
-10.248012 23.518629 -2.091326 4293977740
-10.132345 23.555716 -2.0902519 4293977740
-9.9585915 23.558315 -2.0843453 4293977740
-9.8314095 23.566387 -2.0805864 4293977740
-9.7285728 23.632723 -2.0825553 4293977740
-9.6385117 23.624424 -2.0787966 4293977740
-9.5687199 23.665672 -2.0798705 4293977740
-9.4408922 23.669781 -2.0759327 4293977740
-9.3613777 23.686348 -2.0746799 4293977740
-9.2644653 23.658115 -2.0691309 4293977740
-9.187933 23.681532 -2.068594 4293977740
-9.0698519 23.707813 -2.066983 4293977740
-8.9946194 23.734329 -2.0668042 4293977740
-8.8976736 23.702766 -2.0610764 4293977740
-8.7858744 23.744436 -2.0610764 4293977740
-8.6633205 23.756527 -2.0583019 4293977740
-8.5028687 23.77956 -2.0553486 4293977740
-7.5453033 23.776781 -2.0276048 4293977740
-7.4521418 23.741432 -2.0220561 4293977740
-7.3786998 23.76853 -2.022414 4293977740
-7.2492194 23.745865 -2.0170443 4293977740
-7.1763091 23.774244 -2.0175812 4293977740
-7.0526094 23.768608 -2.0139117 4293977740
-6.8497739 23.767738 -2.0087211 4293977740
-6.7217526 23.743229 -2.0034409 4293977740
-6.608736 23.770802 -2.003083 4293977740
-8.432765 23.819302 -2.0566015 4293977740
-8.3460627 23.811831 -2.0533798 4293977740
-8.231822 23.845243 -2.0528429 4293977740
-8.1530085 23.859674 -2.0517688 4293977740
-8.0602007 23.832315 -2.046757 4293977740
-7.9833922 23.851852 -2.0462198 4293977740
-7.862834 23.864603 -2.0438931 4293977740
-7.7711983 23.838036 -2.0390604 4293977740
-7.6779909 23.805439 -2.0336905 4293977740
-14.648022 24.338137 -2.0375986 4294901760
-14.524005 24.391462 -2.0361767 4294901760
-14.451352 24.443842 -2.0368085 4294901760
-14.409762 24.549334 -2.0423374 4294901760
-10.318472 25.46336 -2.0981455 4293977740
-10.191697 25.495054 -2.0966363 4293977740
-10.005758 25.493675 -2.0907676 4293977740
-10.103464 25.506567 -2.0947919 4293977740
-9.8833551 25.534969 -2.0902648 4293977740
-9.7490139 25.544933 -2.0869951 4293977740
-9.6176233 25.561724 -2.0843961 4293977740
-9.4915085 25.591816 -2.0830548 4293977740
-9.4034786 25.600941 -2.0812104 4293977740
-9.317544 25.615376 -2.079869 4293977740
-9.1845913 25.625244 -2.0768509 4293977740
-9.0554276 25.644718 -2.074755 4293977740
-8.8807154 25.662548 -2.0713177 4293977740
-8.7477684 25.669189 -2.0682158 4293977740
-8.6092167 25.65822 -2.0636046 4293977740
-8.4744129 25.656887 -2.0599158 4293977740
-8.3807325 25.643614 -2.0563946 4293977740
-8.2853622 25.624319 -2.0523705 4293977740
-8.1578608 25.642191 -2.0505261 4293977740
-8.0688543 25.641092 -2.0481787 4293977740
-7.9835134 25.651094 -2.0468373 4293977740
-7.8607998 25.682713 -2.0463343 4293977740
-7.768486 25.669142 -2.0429807 4293977740
-7.6837978 25.680058 -2.0418069 4293977740
-7.553668 25.685404 -2.0391243 4293977740
-7.3827453 25.699802 -2.0362737 4293977740
-7.4712548 25.703268 -2.0386212 4293977740
-7.296515 25.703701 -2.0345972 4293977740
-7.1688585 25.714769 -2.0325851 4293977740
-7.0449657 25.738623 -2.0317466 4293977740
-10.562962 27.190044 -2.0980968 4293977740
-7.4309278 27.17729 -2.0192757 4293977740
-10.468922 27.200758 -2.0962014 4293977740
-10.38695 27.24283 -2.0969911 4293977740
-10.282344 27.224951 -2.0927262 4293977740
-10.153932 27.273104 -2.0927262 4293977740
-8.6281891 27.296257 -2.0551319 4293977740
-8.5340786 27.296583 -2.0529208 4293977740
-8.2496929 27.286995 -2.0455756 4293977740
-8.0597734 27.276171 -2.040442 4293977740
-7.95789 27.245842 -2.035861 4293977740
-7.8661857 27.249636 -2.0341234 4293977740
-7.7761812 27.258867 -2.0328598 4293977740
-7.6245837 27.212635 -2.0260677 4293977740
-7.5374684 27.23069 -2.0255938 4293977740
-10.076463 27.327322 -2.0946217 4293977740
-9.9741802 27.313887 -2.0908308 4293977740
-9.8413248 27.349319 -2.0898829 4293977740
-9.7480059 27.359442 -2.0881457 4293977740
-9.6415005 27.331625 -2.0832486 4293977740
-9.5034685 27.350378 -2.0810375 4293977740
-9.4110222 27.361244 -2.0794578 4293977740
-9.303875 27.328369 -2.074245 4293977740
-9.1661386 27.34544 -2.0720339 4293977740
-9.0601444 27.313528 -2.0669794 4293977740
-8.9718161 27.334272 -2.0663471 4293977740
-8.8705521 27.314901 -2.062398 4293977740
-8.7344694 27.333611 -2.060503 4293977740
-8.3960114 27.305994 -2.0503931 4293977740
-15.072427 29.543375 -2.0022469 4294901760
-6.7679615 29.689508 -2.0010049 4293977740
-7.129437 29.760696 -2.0120242 4293977740
-7.0271525 29.746073 -2.0092695 4293977740
-6.8747282 29.726393 -2.0053546 4293977740
-7.2432218 29.821487 -2.0182588 4293977740
-8.2385426 29.98628 -2.0479815 4293977740
-8.0810013 29.965082 -2.0434868 4293977740
-9.1863928 30.078974 -2.0736446 4293977740
-9.0837622 30.080956 -2.0716147 4293977740
-8.9316568 30.089018 -2.0690048 4293977740
-8.8218689 30.065268 -2.0650902 4293977740
-8.7190199 30.0641 -2.0629153 4293977740
-8.5624447 30.053072 -2.0590007 4293977740
-8.4587774 30.047188 -2.056536 4293977740
-8.3461037 30.008289 -2.0516062 4293977740
-10.048706 30.165936 -2.0987275 4293977740
-9.9357252 30.142435 -2.094523 4293977740
-9.8285847 30.135576 -2.0916231 4293977740
-9.6669044 30.120798 -2.0869834 4293977740
-9.5565014 30.101599 -2.0832138 4293977740
-9.4553013 30.11054 -2.0816188 4293977740
-9.2991333 30.109035 -2.0781393 4293977740
-15.036 30.899248 -2.0821781 4293977740
-15.161946 30.911001 -2.0865743 4293977740
-14.935391 30.939135 -2.0816453 4293977740
-14.748254 30.922686 -2.0752509 4293977740
-14.63741 30.939993 -2.0731192 4293977740
-6.6947122 32.499683 -2.0033128 4293977740
-6.80899 32.537094 -2.0073092 4293977740
-7.0985656 32.640587 -2.0180998 4293977740
-6.9860001 32.615891 -2.0149028 4293977740
-7.5107455 32.795979 -2.0342193 4293977740
-7.3967376 32.770737 -2.0308888 4293977740
-7.2207875 32.707779 -2.0242281 4293977740
-8.020298 32.87849 -2.0474081 4293977740
-7.9137177 32.889938 -2.0464756 4293977740
-7.7408409 32.851097 -2.0412798 4293977740
-7.629487 32.840263 -2.038882 4293977740
-9.7136621 32.9869 -2.0837767 4293977740
-9.4285841 32.97197 -2.0775156 4293977740
-9.3190079 32.980305 -2.0760503 4293977740
-9.2078514 32.982502 -2.0741851 4293977740
-9.09624 32.982407 -2.0721867 4293977740
-8.9287653 32.980591 -2.0691228 4293977740
-8.821517 32.994984 -2.0681903 4293977740
-8.7081566 32.985867 -2.065659 4293977740
-8.5456448 32.999477 -2.0637939 4293977740
-8.4281425 32.972015 -2.0600638 4293977740
-8.1502838 32.961632 -2.0548685 4293977740
-10.4013 33.013077 -2.0988305 4293977740
-10.246802 33.065533 -2.0990968 4293977740
-10.125366 33.040314 -2.0951004 4293977740
-10.006514 33.022289 -2.0916367 4293977740
-9.8343201 33.013603 -2.0877733 4293977740
-9.6088772 33.01342 -2.0835104 4293977740
-11.004309 35.389278 -2.0354939 4294901760
-12.61932 35.412437 -2.0678084 4294901760
-12.432437 35.415012 -2.0641775 4294901760
-12.30469 35.406769 -2.0611517 4294901760
-12.188848 35.432037 -2.0603046 4294901760
-11.314193 35.402519 -2.0419083 4294901760
-10.890141 35.414135 -2.0348887 4294901760
-10.795704 35.503555 -2.0383985 4294901760
-12.116098 35.766956 -2.0780957 4294901760
-6.3863816 35.952896 -2.0024531 4293977740
-7.0562277 36.089893 -2.0180659 4294901760
-7.3694258 36.180054 -2.027143 4294901760
-7.1851897 36.145863 -2.022907 4294901760
-7.8055644 36.27636 -2.0382776 4294901760
-7.6192918 36.240467 -2.0337994 4294901760
-7.4976606 36.227093 -2.0315001 4294901760
-8.0623741 36.357166 -2.0463865 4293977740
-7.9305968 36.302364 -2.0414243 4294901760
-8.5157967 36.497627 -2.0607886 4293977740
-8.3844767 36.452229 -2.0563109 4293977740
-8.2553139 36.414154 -2.0523169 4293977740
-8.9603996 36.580151 -2.0719235 4293977740
-8.8350983 36.565434 -2.0692606 4293977740
-8.6405697 36.513428 -2.0634515 4293977740
-9.9734058 36.69783 -2.0941927 4293977740
-9.8440666 36.676926 -2.0909247 4293977740
-9.7170076 36.663296 -2.0881412 4293977740
-9.5249815 36.635269 -2.0835421 4293977740
-9.395915 36.610878 -2.0801532 4293977740
-9.0955296 36.633183 -2.0770066 4293977740
-8.4858389 40.598572 -2.0493348 4293977740
-8.2828741 40.581356 -2.0461791 4293977740
-8.1435909 40.548428 -2.0429142 4293977740
-8.768857 40.675266 -2.0566258 4293977740
-8.6282187 40.642044 -2.0532525 4293977740
-9.1171885 40.735737 -2.0639172 4293977740
-8.9763107 40.705658 -2.0606525 4293977740
-9.6234255 40.883816 -2.0779555 4293977740
-9.4154453 40.862541 -2.0742555 4293977740
-9.2707138 40.819855 -2.0702291 4293977740
-9.7694035 40.927212 -2.0820909 4293977740
-17.066805 44.101658 -2.0959048 4293977740
-7.2437758 44.801247 -2.0029638 4293977740
-7.0297909 44.817116 -2.0020869 4293977740
-9.1344929 45.159698 -2.0366719 4293977740
0.21997869 -22.20578 -1.9171593 4293977740
0.32455665 -22.200516 -1.9167771 4293977740
0.46421203 -22.206001 -1.9175415 4293977740
0.56885117 -22.203566 -1.9175415 4293977740
0.63878286 -22.20764 -1.9181149 4293977740
0.70867711 -22.209503 -1.9184971 4293977740
0.84839189 -22.209557 -1.9189748 4293977740
0.95309967 -22.206331 -1.9190702 4293977740
1.0233263 -22.213173 -1.9200258 4293977740
1.3729858 -22.208267 -1.9213634 4293977740
1.443275 -22.21179 -1.922128 4293977740
1.5137374 -22.217075 -1.9230833 4293977740
1.654357 -22.220995 -1.9244213 4293977740
1.7604808 -22.230843 -1.926141 4293977740
1.8635345 -22.202461 -1.9242301 4294901760
1.9346752 -22.212364 -1.9257588 4293977740
2.0417354 -22.228741 -1.9282432 4293977740
2.1817451 -22.219463 -1.9286253 4293977740
2.2535677 -22.232304 -1.9305363 4293977740
2.5001304 -22.225964 -1.9324474 4294901760
-4.209084 -22.124605 -1.9473531 4293977740
-4.1377382 -22.127934 -1.9463975 4293977740
-4.06248 -22.109486 -1.9433401 4293977740
-3.9572022 -22.122503 -1.9427667 4293977740
-3.8488646 -22.117334 -1.9404733 4293977740
-3.7130666 -22.160749 -1.9423845 4293977740
-3.6411858 -22.15855 -1.941047 4293977740
-3.567467 -22.144325 -1.9385624 4293977740
-3.4963391 -22.145588 -1.937607 4293977740
-3.3553493 -22.155277 -1.9364604 4293977740
-3.2491894 -22.15905 -1.9353137 4293977740
-3.1414056 -22.150457 -1.9330206 4293977740
-3.0360627 -22.158083 -1.9323518 4293977740
-2.8600347 -22.166435 -1.9309185 4293977740
-2.754092 -22.167839 -1.9297719 4293977740
-2.6444519 -22.137075 -1.9255676 4293977740
-2.5742095 -22.139339 -1.9249945 4293977740
0.39403182 -22.185452 -1.9154394 4293977740
1.2670412 -22.192627 -1.9192615 4293977740
2.3179607 -22.173639 -1.9255676 4294901760
5.0343299 -19.915491 -1.9036434 4293977740
5.1335583 -19.912746 -1.9059005 4293977740
5.2351427 -19.918139 -1.9090812 4293977740
5.3702345 -19.922348 -1.9130824 4293977740
5.435926 -19.916897 -1.9143136 4294901760
5.504797 -19.922741 -1.9167762 4294901760
-2.0800173 -19.845205 -1.9485389 4294901760
5.5894976 -19.864012 -1.9132876 4294901760
5.7131019 -19.824677 -1.9128773 4293977740
5.8114781 -19.81472 -1.9147241 4294901760
-1.1315206 -19.718664 -1.9265426 4293977740
5.6318049 -19.775534 -1.9056954 4293977740
5.8618646 -19.756298 -1.9104149 4294901760
5.9267473 -19.747316 -1.9114408 4294901760
6.0991912 -19.757208 -1.9175968 4294901760
6.1677256 -19.758846 -1.9198539 4294901760
6.2255955 -19.726089 -1.9184175 4294901760
-2.1176777 -19.607248 -1.9233078 4294901760
5.9783964 -19.694321 -1.9077473 4294901760
6.3463635 -19.67709 -1.9173915 4294901760
6.4285355 -19.614836 -1.9139032 4294901760
6.5503249 -19.673077 -1.9235475 4294901760
-2.1747046 -19.558994 -1.918779 4294901760
5.2411036 -19.455147 -1.9696729 4293977740
5.3279958 -19.413002 -1.9677321 4293977740
5.4406519 -19.346594 -1.964066 4293977740
5.5246315 -19.295918 -1.9612623 4293977740
5.6384373 -19.236013 -1.9584591 4293977740
5.7301865 -19.213055 -1.9588903 4293977740
5.7824411 -19.16832 -1.9558712 4293977740
5.8732924 -19.142756 -1.9560868 4293977740
5.9539104 -19.084488 -1.9526365 4293977740
6.0731068 -19.04483 -1.9524208 4293977740
6.1633925 -19.017868 -1.9526364 4293977740
6.271481 -18.944828 -1.9487547 4293977740
-3.6355741 -18.779079 -1.9834268 4293977740
-3.7402029 -18.245663 -1.9256179 4294901760
-3.6844482 -18.265112 -1.9265318 4294901760
5.2570457 -18.226759 -1.9652613 4293977740
5.3524532 -18.181421 -1.9633193 4293977740
5.4289823 -18.125509 -1.9596634 4293977740
-4.1062894 -18.009892 -1.9080236 4293977740
-3.9561315 -18.002787 -1.9034538 4293977740
-3.869787 -18.014408 -1.9026542 4294901760
5.5667963 -18.068068 -1.9579496 4293977740
5.6450915 -18.01984 -1.955322 4293977740
-4.7178473 -17.939577 -1.916935 4293977740
-4.6377482 -17.978918 -1.9189913 4293977740
-4.5454006 -17.970699 -1.9154497 4293977740
-4.4302287 -17.990257 -1.9144218 4293977740
-4.3362803 -17.973255 -1.909966 4293977740
-4.2179971 -17.977934 -1.9073384 4293977740
-4.1569915 -17.971746 -1.9050534 4293977740
-3.6243119 -17.935293 -1.9809947 4294901760
5.7521496 -17.965067 -1.953037 4293977740
5.8318639 -17.922655 -1.9512091 4294901760
5.9440413 -17.884693 -1.9510949 4294901760
6.0406065 -17.893234 -1.9555504 4294901760
6.3827152 -17.617771 -1.938642 4293977740
6.0016007 -17.593838 -1.9215047 4294901760
6.2072172 -17.562395 -1.9258461 4294901760
6.3092899 -17.587214 -1.9324725 4293977740
6.431231 -17.57896 -1.936357 4293977740
6.5071101 -17.529823 -1.934072 4293977740
6.6868663 -17.506718 -1.9388704 4293977740
-4.5870638 -17.415943 -1.9464111 4294901760
-3.6144557 -17.458975 -1.9247072 4294901760
5.2501988 -17.449642 -1.9719315 4293977740
5.3032513 -17.427366 -1.971216 4293977740
6.0591812 -17.492105 -1.9125936 4294901760
6.1199875 -17.48987 -1.91465 4294901760
6.5579801 -17.498127 -1.9327011 4293977740
6.6101189 -17.470001 -1.931787 4293977740
-4.4598737 -17.375154 -1.9378252 4294901760
5.3497581 -17.38406 -1.9678769 4293977740
5.4537611 -17.333998 -1.9658496 4293977740
-4.3509636 -17.288099 -1.9244688 4294901760
-4.2670875 -17.298744 -1.9232762 4293977740
-4.1449509 -17.269224 -1.9163597 4294901760
-4.0533648 -17.245033 -1.9109933 4294901760
-3.9740458 -17.272675 -1.9120665 4294901760
-3.8598442 -17.272083 -1.9089658 4294901760
-3.7758868 -17.278456 -1.9075348 4294901760
-3.6894805 -17.272747 -1.9046729 4294901760
5.5290351 -17.288267 -1.9633451 4293977740
5.6362991 -17.249393 -1.9628681 4293977740
5.7366848 -17.190104 -1.9598868 4293977740
5.8653684 -17.126684 -1.9576211 4294901760
5.9407887 -17.083876 -1.955713 4293977740
6.0463099 -17.041523 -1.9551167 4294901760
6.154355 -16.964754 -1.9508237 4293977740
6.2382722 -16.90556 -1.9476037 4294901760
6.290657 -16.88402 -1.9473655 4293977740
6.3609881 -16.830053 -1.9442647 4293977740
6.4370131 -16.791531 -1.9431914 4293977740
6.5070457 -16.737909 -1.9402101 4293977740
6.5763474 -16.683058 -1.9371097 4293977740
6.655992 -16.654627 -1.9374673 4293977740
6.7436123 -16.571138 -1.932101 4293977740
4.9931545 -16.481575 -1.9671987 4293977740
5.0652328 -16.439819 -1.9648074 4293977740
-4.5515337 -16.313503 -1.9310805 4294901760
-3.6377892 -16.310658 -1.9025131 4293977740
5.1645789 -16.395382 -1.9631716 4293977740
5.2348433 -16.349106 -1.9602772 4293977740
5.3353329 -16.309305 -1.9593962 4293977740
-4.6614332 -16.262863 -1.9286892 4294901760
-4.4425602 -16.268507 -1.9218937 4294901760
-4.358129 -16.260498 -1.9181182 4294901760
-4.2543325 -16.28183 -1.917363 4293977740
-4.1656618 -16.255569 -1.9113227 4293977740
-3.6876888 -16.293348 -1.9017581 4293977740
5.3853025 -16.288692 -1.9588927 4293977740
5.426435 -16.241568 -1.9548656 4293977740
5.4952927 -16.193258 -1.9518453 4293977740
5.5686188 -16.158726 -1.9507128 4293977740
5.6430974 -16.127632 -1.9500834 4293977740
5.7346659 -16.064735 -1.9464338 4293977740
5.846734 -16.020035 -1.9459305 4293977740
5.9567041 -15.969971 -1.9447978 4294901760
6.0555477 -15.92853 -1.9442946 4294901760
6.1048517 -15.907575 -1.9440426 4294901760
4.8605494 -15.882198 -1.984053 4293977740
4.9335427 -15.853425 -1.9832644 4293977740
5.0270371 -15.803242 -1.9806358 4293977740
6.1729145 -15.861039 -1.9416517 4294901760
6.2655506 -15.804422 -1.9392606 4294901760
-4.8260288 -15.780797 -1.9698588 4294901760
-4.7430878 -15.774849 -1.9659157 4294901760
-4.6233125 -15.733946 -1.95619 4293977740
-4.5425692 -15.732663 -1.9530358 4293977740
5.0553117 -15.721344 -1.9714357 4293977740
5.1589632 -15.704334 -1.9735388 4293977740
6.3281465 -15.745232 -1.9352334 4294901760
-4.415792 -15.661648 -1.9393672 4293977740
-4.3125963 -15.671871 -1.9370013 4293977740
-4.2340698 -15.674785 -1.9346355 4293977740
-4.1503196 -15.657153 -1.9295099 4293977740
-4.0707798 -15.654484 -1.9264868 4293977740
-3.8192651 -15.695294 -1.9235953 4293977740
5.0991335 -15.688424 -1.9690701 4293977740
5.2613306 -15.682859 -1.9751157 4293977740
5.3242626 -15.626026 -1.9706472 4293977740
6.4429736 -15.673927 -1.932339 4294901760
5.3893723 -15.576419 -1.96723 4293977740
5.4567604 -15.534006 -1.9648643 4293977740
5.5735397 -15.476686 -1.962893 4293977740
5.6696615 -15.438563 -1.9624985 4293977740
6.8760037 -15.403083 -1.9223968 4293977740
5.7567682 -15.376679 -1.9588186 4293977740
5.8302183 -15.352141 -1.9592128 4293977740
6.9705949 -15.355042 -1.9217678 4293977740
7.0366917 -15.308511 -1.91988 4293977740
5.9423161 -15.284641 -1.95619 4293977740
6.0469089 -15.233939 -1.9550071 4294901760
7.151072 -15.240745 -1.918202 4293977740
6.1529613 -15.187163 -1.9544814 4294901760
6.2604723 -15.144208 -1.9546129 4294901760
7.2430372 -15.18779 -1.9171113 4293977740
7.3270907 -15.118739 -1.9138395 4293977740
7.391304 -15.069797 -1.9118258 4293977740
7.4587193 -15.027681 -1.9108189 4293977740
4.8263874 -14.93704 -1.9715505 4293977740
7.4996982 -14.991744 -1.9090573 4293977740
7.5423079 -14.959246 -1.9077989 4293977740
7.6145134 -14.927073 -1.9083019 4293977740
4.7317677 -14.883146 -1.9603571 4293977740
4.8908825 -14.896261 -1.9689246 4293977740
4.9784131 -14.84737 -1.9662991 4293977740
6.2373729 -14.857483 -1.9183384 4293977740
6.6621141 -14.87636 -1.9430469 4293977740
6.7580318 -14.809034 -1.9401556 4293977740
7.6747823 -14.871599 -1.9055334 4293977740
7.7347188 -14.815924 -1.9027649 4293977740
-3.9561372 -14.732798 -1.9097792 4293977740
-3.8466091 -14.740254 -1.906877 4293977740
-3.7330339 -14.730629 -1.9016258 4293977740
-3.6642864 -14.750962 -1.9020404 4293977740
-3.5469217 -14.773511 -1.9012111 4293977740
5.0372205 -14.79093 -1.9614624 4293977740
5.1560097 -14.75898 -1.9626602 4293977740
6.8587193 -14.752859 -1.9389726 4293977740
6.949194 -14.705001 -1.9383155 4293977740
7.7979836 -14.767018 -1.901003 4293977740
-4.3779149 -14.637847 -1.9130958 4293977740
-4.2550354 -14.645163 -1.9092263 4293977740
-4.1323071 -14.651451 -1.905357 4293977740
5.2793078 -14.666246 -1.9562112 4293977740
5.3686314 -14.625345 -1.9551057 4293977740
5.4666729 -14.60804 -1.9575931 4293977740
6.9782453 -14.647325 -1.9330584 4293977740
7.0319786 -14.641404 -1.935424 4293977740
5.5200195 -14.541342 -1.9515127 4293977740
5.61202 -14.508228 -1.951789 4293977740
7.0895925 -14.584941 -1.932007 4293977740
7.155148 -14.545137 -1.9310869 4293977740
7.2258477 -14.515702 -1.931744 4293977740
4.7645659 -14.405384 -1.9722891 4293977740
4.8148417 -14.405354 -1.9745765 4293977740
5.6582894 -14.492372 -1.9520656 4293977740
5.702343 -14.470837 -1.9515127 4293977740
7.2923803 -14.477952 -1.9312185 4293977740
7.3460712 -14.415167 -1.9270127 4293977740
4.8626208 -14.397655 -1.9757202 4293977740
4.9438953 -14.340618 -1.9717174 4293977740
5.0055189 -14.300373 -1.9691441 4293977740
5.7521777 -14.397788 -1.9446031 4293977740
5.8452268 -14.368049 -1.9456166 4293977740
5.9536242 -14.311372 -1.9440504 4293977740
7.4499111 -14.339437 -1.9243841 4293977740
5.0681911 -14.263577 -1.9671428 4293977740
5.1558805 -14.226448 -1.9663805 4293977740
6.0205979 -14.28223 -1.9439123 4293977740
6.1005101 -14.221363 -1.9404575 4294901760
7.4970326 -14.265623 -1.9186012 4293977740
7.5847111 -14.268618 -1.924384 4293977740
7.6248035 -14.235988 -1.9230698 4293977740
5.2811599 -14.154396 -1.9628544 4293977740
5.3414879 -14.112715 -1.9602814 4293977740
6.1611786 -14.177888 -1.9382464 4294901760
6.2719135 -14.128166 -1.9381082 4293977740
7.6506023 -14.177097 -1.9178125 4293977740
7.7490611 -14.146111 -1.9204413 4293977740
-11.172174 -14.082757 -1.9423568 4294901760
5.4473362 -14.057992 -1.9583751 4293977740
5.553709 -14.005008 -1.9568503 4293977740
6.3561029 -14.078539 -1.9365882 4293977740
6.4403238 -14.029335 -1.9352063 4293977740
7.7925315 -14.06786 -1.9141325 4293977740
7.8444414 -14.05715 -1.9162353 4293977740
7.9047341 -14.009677 -1.9146584 4293977740
-23.472391 -13.928003 -1.9494573 4294901760
-23.324064 -13.939394 -1.9398221 4294901760
-23.121515 -13.966805 -1.9271854 4294901760
-22.936062 -13.953511 -1.9140748 4294901760
-22.274342 -13.943828 -1.9975413 4293977740
-22.060268 -13.954727 -1.9827861 4293977740
-21.942406 -13.976778 -1.9754084 4293977740
-20.24118 -13.925529 -1.9937754 4294901760
-11.1706 -13.990108 -1.933532 4294901760
5.5962014 -13.983817 -1.9562786 4293977740
5.6575422 -13.946277 -1.9545631 4293977740
6.4785643 -13.996441 -1.9332715 4293977740
6.5490985 -13.947118 -1.9311987 4293977740
6.6269755 -13.913622 -1.9316133 4293977740
7.9632754 -13.959343 -1.9126867 4293977740
-26.513756 -13.861473 -1.9622928 4294901760
-23.955631 -13.860477 -1.9797858 4294901760
-16.108328 -13.871919 -1.9775147 4294901760
5.760807 -13.886797 -1.9522758 4293977740
5.8537788 -13.833868 -1.9504175 4293977740
6.6629639 -13.876649 -1.9291257 4293977740
6.714479 -13.816567 -1.9247037 4293977740
8.0611877 -13.876669 -1.9096639 4293977740
8.1580505 -13.817614 -1.9094011 4293977740
4.7617917 -13.738838 -1.9695017 4293977740
4.8010297 -13.712605 -1.9677153 4293977740
5.9459162 -13.779451 -1.9484161 4293977740
6.047945 -13.718755 -1.9462719 4293977740
6.7699022 -13.765197 -1.9216635 4293977740
6.8624606 -13.734811 -1.9235982 4293977740
6.9082403 -13.718495 -1.9244274 4293977740
8.2473259 -13.746052 -1.9072982 4293977740
-26.256298 -13.621687 -1.9376446 4294901760
-23.37175 -13.67071 -1.9322399 4294901760
-23.189465 -13.662226 -1.9194452 4294901760
-14.939899 -13.616929 -1.9767896 4294901760
-12.923389 -13.601654 -1.9413838 4294901760
-11.164522 -13.670874 -1.9032416 4294901760
-4.1514659 -13.602841 -1.9215593 4293977740
-4.061089 -13.612536 -1.9190282 4293977740
-3.9704661 -13.620705 -1.9163482 4293977740
-3.8557758 -13.624842 -1.9121792 4293977740
-3.755672 -13.638393 -1.910095 4293977740
-3.6545191 -13.647442 -1.9074147 4293977740
-3.5414865 -13.653715 -1.9039903 4293977740
-3.4756317 -13.664523 -1.9030972 4293977740
4.8603244 -13.67491 -1.9653327 4293977740
4.9416442 -13.63166 -1.9633478 4293977740
6.1390467 -13.663015 -1.9442706 4293977740
6.2091503 -13.618293 -1.9425552 4293977740
6.9674149 -13.675178 -1.922769 4293977740
7.0377932 -13.601211 -1.9180704 4293977740
8.2893486 -13.669786 -1.9015154 4293977740
8.3588667 -13.639018 -1.9028298 4293977740
8.40063 -13.611003 -1.9025668 4293977740
-25.713156 -13.596776 -1.9018325 4294901760
-17.517645 -13.557453 -1.9118087 4294901760
-15.041057 -13.558537 -1.9806712 4294901760
-4.5561004 -13.544318 -1.9317828 4294901760
-4.4682465 -13.564582 -1.9304926 4294901760
-4.3550959 -13.579131 -1.9273163 4293977740
-4.2439632 -13.599131 -1.9251328 4293977740
-4.1953526 -13.593509 -1.9221549 4293977740
5.0607491 -13.559781 -1.9593773 4293977740
5.1232052 -13.532099 -1.9587817 4293977740
6.2699075 -13.581688 -1.9414115 4293977740
6.3713074 -13.521288 -1.9396961 4293977740
7.0859642 -13.589581 -1.9197289 4293977740
7.1212764 -13.553213 -1.9175178 4293977740
8.5529671 -13.522837 -1.9033555 4293977740
-9.2777882 -13.426091 -1.9456757 4294901760
5.1819749 -13.494875 -1.9566972 4293977740
5.2430005 -13.463835 -1.9556551 4293977740
5.3242378 -13.422362 -1.9543152 4293977740
6.4576859 -13.45717 -1.936694 4293977740
6.5250783 -13.408162 -1.9345498 4293977740
7.1711659 -13.493242 -1.9133722 4293977740
7.23979 -13.468896 -1.9148922 4293977740
-9.5800247 -13.319735 -1.9572414 4294901760
-9.4709549 -13.344032 -1.9514586 4294901760
-9.3840818 -13.354435 -1.9459385 4294901760
-9.2973289 -13.364289 -1.9404184 4294901760
-4.6076636 -13.350596 -1.9066703 4294901760
5.363451 -13.39822 -1.953124 4293977740
5.4332981 -13.35933 -1.9516351 4293977740
5.5234632 -13.310553 -1.9499974 4293977740
6.6409454 -13.325703 -1.931262 4293977740
7.3551602 -13.379463 -1.9116216 4293977740
7.4288316 -13.314569 -1.9086736 4293977740
-9.6868277 -13.291362 -1.9624985 4294901760
5.5842204 -13.279834 -1.9492528 4293977740
5.6860123 -13.230111 -1.9483595 4293977740
5.7259822 -13.20855 -1.9477639 4293977740
6.5094275 -13.270405 -1.9156802 4293977740
6.7434559 -13.25222 -1.9284506 4293977740
6.8407779 -13.203076 -1.928546 4293977740
7.479847 -13.258691 -1.905357 4293977740
7.5520072 -13.240509 -1.9081209 4293977740
-20.014164 -13.131241 -1.9370348 4294901760
-19.891308 -13.140347 -1.9282641 4294901760
-7.9166188 -13.102238 -1.9172415 4294901760
5.8588209 -13.117684 -1.9432971 4293977740
6.8794651 -13.17626 -1.9276881 4293977740
6.9322052 -13.126208 -1.924829 4293977740
7.6522899 -13.174788 -1.9071535 4293977740
7.7158132 -13.141153 -1.9075681 4293977740
6.0157347 -13.026846 -1.9406173 4293977740
-17.867756 -12.994662 -1.9062667 4294901760
-3.8219924 -12.926598 -1.935195 4293977740
-3.7541957 -12.920707 -1.9313816 4294901760
-3.6435552 -12.917431 -1.9261947 4293977740
-3.5469384 -12.923778 -1.9231439 4293977740
-3.4517176 -12.934213 -1.9208556 4293977740
-3.3545425 -12.936253 -1.9173472 4293977740
-3.2584465 -12.94145 -1.9144487 4293977740
-3.1516218 -12.945503 -1.9110929 4293977740
-3.0550828 -12.946266 -1.9077368 4293977740
-2.9604247 -12.954067 -1.9056011 4293977740
-2.8656423 -12.960159 -1.9033129 4293977740
-1.3735982 -12.901924 -1.9784546 4293977740
-1.2508702 -12.903478 -1.9766769 4293977740
-1.1485929 -12.903076 -1.9750609 4293977740
-1.0873553 -12.903445 -1.9742529 4293977740
-0.965473 -12.910152 -1.9737681 4293977740
-0.82248646 -12.905218 -1.9713442 4293977740
-0.73113918 -12.908717 -1.9710208 4293977740
-0.63951147 -12.906685 -1.9698896 4293977740
-0.51796705 -12.915112 -1.9703743 4293977740
-0.47685191 -12.90287 -1.968112 4293977740
-0.35531712 -12.909735 -1.9685969 4293977740
-0.26383042 -12.90204 -1.9669807 4293977740
-0.17267732 -12.907548 -1.9676273 4293977740
-0.05103074 -12.909561 -1.9677888 4293977740
0.070635021 -12.90851 -1.9676273 4293977740
0.15173316 -12.90781 -1.967627 4293977740
0.23291554 -12.911551 -1.9684353 4293977740
0.31394777 -12.905887 -1.9677889 4293977740
2.7889667 -12.957708 -1.9004147 4293977740
2.8729172 -12.951501 -1.902245 4293977740
2.9440701 -12.935475 -1.902245 4293977740
6.0891204 -12.970879 -1.9376395 4293977740
6.1306829 -12.953474 -1.9379373 4293977740
7.9759421 -12.924438 -1.9003822 4293977740
-14.764178 -12.872881 -1.9088589 4294901760
-10.69167 -12.803644 -1.9935158 4293977740
-4.6371555 -12.816917 -1.9583822 4294901760
-4.5486407 -12.823434 -1.9547212 4294901760
-4.4374824 -12.828861 -1.9498396 4294901760
-4.3432636 -12.849569 -1.9481616 4293977740
-4.2390642 -12.839596 -1.9416021 4293977740
-4.1320682 -12.853668 -1.9385513 4293977740
-4.0444565 -12.857677 -1.9350426 4293977740
-3.9355969 -12.863511 -1.9309237 4293977740
-3.8772092 -12.889505 -1.9321444 4293977740
-2.3443582 -12.889681 -1.9991399 4293977740
-2.2398129 -12.889225 -1.9960694 4293977740
-2.1458545 -12.888173 -1.9933221 4293977740
-2.052501 -12.889399 -1.9910598 4293977740
-1.9492557 -12.892443 -1.9889588 4293977740
-1.8667903 -12.89467 -1.9873428 4293977740
-1.7428961 -12.895042 -1.9845957 4293977740
-1.6402955 -12.89859 -1.9829795 4293977740
-1.5780394 -12.894407 -1.9810405 4293977740
-1.4550939 -12.896918 -1.9791012 4293977740
-1.3117652 -12.898438 -1.9768386 4293977740
-1.0255754 -12.896624 -1.9723136 4293977740
-0.9035579 -12.899812 -1.9713442 4293977740
-0.55791283 -12.899619 -1.968112 4293977740
-0.41577232 -12.897084 -1.9668193 4293977740
0.27317363 -12.89497 -1.9658496 4293977740
0.37428117 -12.886508 -1.96488 4293977740
0.43502927 -12.885571 -1.9650416 4293977740
0.5559203 -12.868054 -1.9629407 4293977740
0.66638595 -12.84898 -1.9606781 4293977740
0.75646138 -12.83116 -1.9585774 4293977740
0.83614004 -12.811397 -1.9561534 4293977740
0.91634536 -12.80195 -1.9555068 4293977740
-16.358059 -12.796651 -1.927036 4294901760
-16.147554 -12.7554 -1.907337 4294901760
-8.3792734 -12.799459 -1.9158596 4294901760
0.87560028 -12.79689 -1.9542141 4293977740
0.97578639 -12.785681 -1.9535677 4293977740
1.0348554 -12.766169 -1.9511437 4293977740
1.1534578 -12.737144 -1.948073 4293977740
1.2619388 -12.710997 -1.9454877 4293977740
1.3316079 -12.701938 -1.9451644 4293977740
-4.6760817 -12.674347 -1.9397714 4294901760
1.3696346 -12.680026 -1.9422555 4293977740
1.4481629 -12.66135 -1.9406393 4293977740
1.5359945 -12.637056 -1.9383769 4293977740
1.6039807 -12.616706 -1.9364376 4293977740
-4.6643949 -12.520575 -1.9168897 4294901760
-3.9217479 -12.500406 -1.99914 4294901760
-3.85987 -12.509306 -1.9975238 4294901760
1.661763 -12.59627 -1.9343369 4293977740
1.7588966 -12.57012 -1.9322361 4293977740
1.8506737 -12.577863 -1.9356297 4293977740
1.9407289 -12.572292 -1.9369226 4293977740
2.0417514 -12.571278 -1.9393466 4293977740
2.2243536 -12.570324 -1.9441948 4293977740
2.3872483 -12.568549 -1.9487195 4294901760
2.4322777 -12.590068 -1.9535677 4294901760
-8.8550663 -12.406069 -1.9822958 4294901760
-8.7796783 -12.416353 -1.9401479 4294901760
-8.1705675 -12.409924 -1.9268305 4293977740
-8.0552969 -12.446502 -1.9221606 4294901760
-7.8425236 -12.416038 -1.9465923 4294901760
-7.7588024 -12.414358 -1.984391 4294901760
-7.649416 -12.412439 -1.9754574 4294901760
-7.2122121 -12.435381 -1.9446373 4294901760
-6.9677849 -12.415455 -1.9237926 4294901760
-6.8399014 -12.415287 -1.9144127 4294901760
-6.7670608 -12.421388 -1.909946 4293977740
-6.6649561 -12.419247 -1.9023525 4293977740
-6.0654936 -12.481291 -1.9965189 4293977740
-5.9588838 -12.485443 -1.9899594 4293977740
-5.84585 -12.474424 -1.9809591 4293977740
-5.7312574 -12.484 -1.9748573 4294901760
-5.6320672 -12.473779 -1.9670773 4293977740
-5.5459728 -12.491773 -1.9641788 4293977740
-5.4712448 -12.481514 -1.9580771 4293977740
-5.3528857 -12.476828 -1.9501445 4293977740
-5.251595 -12.483331 -1.9449581 4293977740
-5.146338 -12.479018 -1.9380934 4293977740
-5.0330877 -12.481444 -1.9318392 4293977740
-4.9411707 -12.478796 -1.9261949 4293977740
-4.8288279 -12.48032 -1.9200931 4294901760
-4.7604818 -12.47801 -1.9159744 4294901760
-4.6905513 -12.470684 -1.9110928 4294901760
-16.805788 -10.136025 -1.9129564 4294901760
-11.714496 -10.13229 -1.9423922 4294901760
-16.840956 -10.085225 -1.9133877 4294901760
-24.3272 -9.990593 -1.9992181 4293977740
-18.257942 -9.9113989 -1.9276514 4294901760
-11.468471 -9.9946594 -1.9780073 4294901760
-11.317374 -9.9568882 -1.957994 4294901760
-18.278477 -9.8483362 -1.9264205 4294901760
-18.440594 -9.6017904 -1.9292932 4294901760
-18.281425 -9.446332 -1.907337 4294901760
-18.103546 -9.3151617 -1.9925321 4294901760
-15.875151 -9.3909054 -1.9986441 4294901760
-14.126133 -9.3200941 -1.9294444 4293977740
-20.039579 -9.2881279 -1.9056933 4293977740
-17.910137 -9.2866631 -1.9724764 4294901760
-17.792822 -9.2967272 -1.9616936 4294901760
-15.762574 -9.2573204 -1.9788482 4294901760
-14.068961 -9.2192545 -1.9163564 4293977740
-14.112833 -9.1847305 -1.9186217 4293977740
-18.187181 -8.541605 -1.9636348 4293977740
-16.947041 -8.5434456 -1.9662895 4294901760
-24.280592 -8.3582993 -1.9470717 4293977740
-17.673552 -8.3674736 -1.905193 4293977740
-24.291645 -8.2768135 -1.9457301 4293977740
-17.77117 -8.2435131 -1.9090747 4293977740
-24.296379 -8.1508141 -1.9427122 4293977740
-19.825218 -8.1241722 -1.9947515 4294901760
-17.082355 -8.1456985 -1.9601204 4293977740
-14.673037 -8.105547 -1.9090573 4293977740
-24.28583 -7.7669382 -1.9318131 4294901760
-24.260725 -7.6749239 -1.9274536 4294901760
-24.25049 -7.5879202 -1.9244357 4294901760
-18.385124 -7.3632045 -1.9323651 4294901760
-18.267935 -7.382803 -1.9213668 4294901760
-21.115288 -7.240869 -1.9282432 4294901760
-17.847651 -7.2046776 -1.9971361 4294901760
-24.328472 -7.1947308 -1.9210821 4294901760
-21.119032 -7.1310782 -1.9251854 4294901760
-23.522118 -7.0601974 -1.9928803 4294901760
-22.05916 -6.7231426 -1.9991412 4294901760
-14.442575 -5.96806 -1.9617388 4293977740
-14.471546 -5.8606892 -1.9598042 4293977740
-13.841277 -5.8184924 -1.9494169 4293977740
-14.513512 -5.7585974 -1.9599423 4293977740
-13.874921 -5.7558584 -1.9504175 4293977740
-14.544068 -5.6783767 -1.9598042 4293977740
-14.256925 -5.6541076 -1.9960194 4293977740
-14.112372 -5.6479044 -1.9762919 4293977740
-13.941821 -5.6684494 -1.954563 4293977740
-13.579895 -5.6096883 -1.9924309 4293977740
-13.48913 -5.6220202 -1.9805195 4293977740
-14.918963 -5.3433867 -1.9924172 4294901760
-12.824225 -5.3124638 -1.997129 4293977740
-14.874826 -5.2487512 -1.9821912 4294901760
-13.44162 -5.2101197 -1.9507418 4294901760
-19.282888 -5.1620002 -1.9494017 4293977740
-14.846335 -5.1863904 -1.9755579 4294901760
-12.870867 -5.166697 -1.9952984 4293977740
-1.6201512 -5.1940379 -1.9260545 4294901760
-1.3159509 -5.1775303 -1.9840183 4293977740
-0.20233065 -5.1154242 -1.9329177 4293977740
-27.118692 -5.0816841 -1.9729933 4293977740
-28.723059 -4.9506974 -1.9061822 4294901760
-12.133927 -4.8587046 -1.9941301 4293977740
-11.510006 -4.82546 -1.9963238 4293977740
-11.455394 -4.8661098 -1.9904001 4293977740
-12.058434 -4.7628322 -1.9768386 4293977740
-11.556602 -4.7386518 -1.9980164 4293977740
-11.598915 -4.6076565 -1.9963238 4293977740
-10.912541 -4.6483626 -1.981427 4294901760
-13.341929 -4.5781512 -1.9039903 4294901760
-10.935334 -4.5569882 -1.9788357 4293977740
-11.350561 -4.4259639 -1.9452102 4294901760
-11.00242 -4.4234824 -1.9808969 4293977740
-10.964138 -4.4682546 -1.97754 4293977740
-14.869513 -4.3700337 -1.9437741 4294901760
-14.708001 -4.3826022 -1.9974487 4294901760
-14.660049 -4.3589096 -1.9153067 4294901760
-14.416432 -4.3692966 -1.9565644 4294901760
-12.716269 -4.3087349 -1.9269576 4294901760
-11.010481 -4.3366308 -1.9764801 4293977740
-13.021999 -4.2538457 -1.9690604 4294901760
-12.709342 -4.2174821 -1.9214659 4294901760
-12.681047 -4.2523303 -1.9190252 4294901760
-11.018823 -4.2502337 -1.97224 4293977740
-10.098172 -4.2406154 -1.9315355 4293977740
-9.9585361 -4.255444 -1.9082121 4293977740
-18.684269 -4.1227808 -1.984112 4294901760
-14.159666 -4.1214652 -1.9108198 4294901760
-13.184577 -4.1018243 -1.9858406 4294901760
-11.06944 -4.150301 -1.9743601 4293977740
-10.113179 -4.1351509 -1.9264978 4293977740
-10.095394 -4.1835151 -1.9268707 4293977740
-9.4380846 -4.1014256 -1.905936 4294901760
-18.625271 -4.0485487 -1.9756579 4294901760
-15.638592 -4.0687923 -1.9243841 4294901760
-14.81608 -4.0623379 -1.9997361 4294901760
-14.139263 -4.0441165 -1.9496834 4294901760
-13.638511 -4.0187664 -1.9209638 4294901760
-12.900274 -4.0573049 -1.9419072 4294901760
-10.251028 -4.0235491 -1.9429172 4293977740
-10.125558 -4.0661373 -1.923761 4293977740
-9.5206041 -4.0133052 -1.9141622 4294901760
-9.4699879 -4.0446935 -1.9073073 4294901760
-2.3611448 -4.0160899 -1.9109547 4294901760
-29.583382 -3.9107921 -1.9566382 4293977740
-24.833004 -3.9350069 -1.9019674 4293977740
-23.39987 -3.9575076 -1.9185987 4293977740
-21.849867 -3.9659011 -1.9171593 4293977740
-17.265301 -3.9171793 -1.9096816 4293977740
-17.198746 -3.9588459 -1.9030032 4293977740
-15.674636 -3.9600511 -1.9254354 4294901760
-15.289511 -3.9501145 -1.9846786 4293977740
-14.836491 -3.9179413 -1.9971628 4294901760
-14.611945 -3.9074068 -1.9654274 4294901760
-14.27654 -3.9858792 -1.921684 4294901760
