# .PCD v0.7 - Point Cloud Data file format
VERSION 0.7
FIELDS x y z rgba
SIZE 4 4 4 4
TYPE F F F U
COUNT 1 1 1 1
WIDTH 1118
HEIGHT 1
VIEWPOINT 0 0 0 1 0 0 0
POINTS 1118
DATA ascii
-1.651967 6.3529406 -1.8222799 4293977740
-1.5736957 6.3714728 -1.8218755 4293977740
-0.34846085 6.3038731 -1.8137629 4293977740
-4.838902 6.4208965 -1.8932084 4293977740
-4.753901 6.4722242 -1.890781 4293977740
-4.0575414 6.4393477 -1.8729701 4293977740
-3.9829431 6.4722061 -1.8698792 4293977740
-3.6244254 6.4027915 -1.867613 4293977740
-3.5524356 6.4301271 -1.8645356 4293977740
-3.4442935 6.4823122 -1.8629701 4293977740
-2.8115997 6.4193611 -1.8392093 4293977740
-2.7426212 6.4469895 -1.8386612 4293977740
-2.6557751 6.4746242 -1.8363771 4293977740
-2.5589259 6.4556785 -1.8447132 4293977740
-2.4465144 6.4508333 -1.8554045 4293977740
-2.3457215 6.4716287 -1.8508459 4293977740
-2.2887409 6.472343 -1.8454282 4293977740
-1.5193186 6.4098983 -1.8292942 4293977740
-1.4494696 6.4293237 -1.8302578 4293977740
-1.3620173 6.4165955 -1.8208635 4293977740
-1.2544538 6.4252753 -1.8169613 4293977740
-1.146125 6.4246073 -1.8107468 4293977740
-1.054726 6.4373322 -1.8098798 4293977740
-0.95693839 6.4419479 -1.8067001 4293977740
-0.85203898 6.4561448 -1.8065555 4293977740
-0.74781001 6.4589591 -1.8035204 4293977740
-0.66315037 6.4597321 -1.8009672 4293977740
-0.53622711 6.4717469 -1.8010635 4293977740
-0.45478505 6.4770679 -1.8007745 4293977740
-4.7037573 6.5213962 -1.8933727 4293977740
-4.6412272 6.5422649 -1.888436 4293977740
-4.5671825 6.590239 -1.8876133 4293977740
-3.9325054 6.5041051 -1.8701367 4293977740
-3.8577054 6.5301681 -1.8658868 4293977740
-3.7581327 6.5681205 -1.861293 4293977740
-3.34691 6.5260653 -1.8612456 4293977740
-3.247067 6.564477 -1.8583274 4293977740
-3.1889973 6.5897422 -1.8575314 4293977740
-2.5346143 6.5119686 -1.8334539 4293977740
-2.4484849 6.5325074 -1.8301651 4293977740
-2.3520133 6.563777 -1.829069 4293977740
-2.259428 6.5516343 -1.8406094 4293977740
-2.1543543 6.5262985 -1.8476702 4293977740
-2.0465424 6.555913 -1.8462689 4293977740
-1.9460995 6.5774179 -1.8437469 4293977740
-1.8410796 6.5916963 -1.8392632 4293977740
-5.0461268 6.656148 -1.8986404 4293977740
-4.9555545 6.6992764 -1.8937486 4293977740
-4.5242352 6.6166978 -1.8869549 4293977740
-4.4560738 6.6563005 -1.8855973 4293977740
-4.3838987 6.6780667 -1.8800434 4293977740
-3.7550371 6.6026053 -1.8688488 4293977740
-3.6531618 6.6219463 -1.8600911 4293977740
-3.5545909 6.6644263 -1.8575151 4293977740
-3.4907017 6.6894646 -1.8554547 4293977740
-3.135762 6.6116567 -1.856647 4293977740
-3.050981 6.6403794 -1.8539498 4293977740
-2.9484491 6.6781054 -1.8518274 4293977740
-2.2240586 6.6042318 -1.8279727 4293977740
-2.1613433 6.6325464 -1.8300281 4293977740
-2.045949 6.6433549 -1.8230394 4293977740
-1.9427643 6.6853123 -1.8260542 4293977740
-1.8589761 6.6416001 -1.8356955 4293977740
-1.7559465 6.6272345 -1.842766 4293977740
-1.6452618 6.6416106 -1.8388147 4293977740
-1.5493299 6.6656232 -1.8390764 4293977740
-1.4594357 6.6693068 -1.8343592 4293977740
-1.3675356 6.6882482 -1.834219 4293977740
0.5858773 6.6955233 -1.8033941 4293977740
0.65409684 6.6881866 -1.8031138 4293977740
0.74272442 6.6734314 -1.801526 4293977740
0.82612324 6.6604695 -1.8005917 4293977740
0.94080162 6.6433024 -1.8000313 4293977740
1.0349261 6.6312342 -1.8005917 4293977740
-4.9320021 6.7334795 -1.8970894 4293977740
-4.8671775 6.7780738 -1.8966123 4293977740
-4.3456125 6.72685 -1.8851448 4293977740
-4.2466989 6.760344 -1.8788092 4293977740
-4.1893077 6.7927208 -1.8780688 4293977740
-3.4430268 6.7177024 -1.8563133 4293977740
-3.3549423 6.7558045 -1.8548107 4293977740
-3.2733579 6.7845058 -1.8521061 4293977740
-2.849627 6.7166734 -1.8507664 4293977740
-2.7493305 6.743773 -1.8470521 4293977740
-2.6482947 6.7758112 -1.8449297 4293977740
-1.8193107 6.720994 -1.8263283 4293977740
-1.7416532 6.7265902 -1.8222175 4293977740
-1.642113 6.7332687 -1.8171473 4293977740
-1.5441849 6.7568979 -1.8172842 4293977740
-1.4421188 6.7612391 -1.812214 4293977740
-1.330104 6.7515011 -1.8264799 4293977740
-1.2412772 6.745626 -1.8278742 4293977740
-1.1553761 6.7197547 -1.8317904 4293977740
-1.0563877 6.7241759 -1.8283904 4293977740
-0.946509 6.733562 -1.8263726 4293977740
-0.84796035 6.741364 -1.8248315 4293977740
-0.75014716 6.7548947 -1.8253919 4293977740
-0.65135545 6.758853 -1.8235704 4293977740
-0.55193818 6.7527637 -1.8192269 4293977740
-0.45355818 6.756722 -1.818246 4293977740
-0.35785291 6.7595816 -1.8174055 4293977740
-0.2566255 6.7560163 -1.8150234 4293977740
-0.16101323 6.7551303 -1.8139026 4293977740
-0.051127274 6.7461672 -1.8107922 4293977740
0.058943558 6.737607 -1.808298 4293977740
0.15685259 6.7365046 -1.8084381 4293977740
0.25502735 6.7407026 -1.81054 4293977740
0.35187691 6.7176027 -1.8050754 4293977740
0.44272828 6.7167034 -1.8063831 4293977740
0.53375566 6.705658 -1.8050754 4293977740
-4.8092923 6.8097911 -1.894703 4293977740
-4.747942 6.841989 -1.8925555 4293977740
-4.6707687 6.8855877 -1.8906466 4293977740
-4.1328206 6.8204079 -1.8765877 4293977740
-4.0423713 6.8704209 -1.8757238 4293977740
-3.9712706 6.8911543 -1.8711573 4293977740
-3.233588 6.811039 -1.853909 4293977740
-3.1501069 6.8350983 -1.8503031 4293977740
-3.0480843 6.8748536 -1.8487575 4293977740
-2.9847219 6.8921432 -1.8461816 4293977740
-2.8974423 6.8978581 -1.8384542 4293977740
-2.5480497 6.8095255 -1.8437357 4293977740
-2.4462397 6.8385506 -1.8416134 4293977740
-2.3441892 6.8660469 -1.8394909 4293977740
-2.2459345 6.889338 -1.8370148 4293977740
-1.3617201 6.801929 -1.8189287 4293977740
-1.2566724 6.8035183 -1.8137214 4293977740
-1.1447124 6.8095922 -1.8098845 4293977740
-1.0462202 6.8117971 -1.8060476 4293977740
-0.94317532 6.8176045 -1.8034441 4293977740
-0.8440814 6.8310609 -1.803581 4293977740
-0.74775481 6.8451347 -1.8044033 4293977740
-0.63400805 6.8489838 -1.8022108 4293977740
-4.6181951 6.9011164 -1.8865899 4293977740
-4.5621014 6.9463711 -1.8882604 4293977740
-4.4796991 6.9871702 -1.8856354 4293977740
-3.9399772 6.9246817 -1.874613 4293977740
-3.8551087 6.9456496 -1.8686888 4293977740
-3.7632897 6.9877815 -1.8668789 4293977740
-2.9452643 6.9048719 -1.8451514 4293977740
-2.8434954 6.9442239 -1.8443787 4293977740
-2.7495763 6.9712524 -1.8417169 4293977740
-2.6838839 6.9971676 -1.8418028 4293977740
-2.2300546 6.9020028 -1.8389604 4293977740
-2.1419163 6.915669 -1.8352461 4293977740
-2.0515776 6.9410324 -1.8347155 4293977740
-1.9614822 6.9564886 -1.8319298 4293977740
-1.8597189 6.9823709 -1.8313992 4293977740
-1.7732954 6.9994092 -1.8299401 4293977740
-24.518318 7.0407958 -1.8080839 4293977740
-20.669821 7.0299702 -1.8812325 4294901760
-20.58548 7.0735931 -1.8749261 4294901760
-4.4286432 7.016212 -1.8849195 4293977740
-4.3539581 7.0627327 -1.8849194 4293977740
-4.2581959 7.0869808 -1.8777606 4293977740
-3.7098572 7.0112267 -1.8657268 4293977740
-3.6445932 7.0409341 -1.8647394 4293977740
-3.5481188 7.0683885 -1.8598028 4293977740
-2.6381545 7.0093756 -1.8405149 4293977740
-2.5559912 7.0330138 -1.8388405 4293977740
-2.4482453 7.0543633 -1.8345906 4293977740
-2.3484342 7.0887251 -1.8347193 4293977740
-1.7516047 7.006115 -1.8302938 4293977740
-1.6523585 7.0174904 -1.8268892 4293977740
-1.5517709 7.034492 -1.8252974 4293977740
-1.4450161 7.0488296 -1.8230422 4293977740
-1.3420765 7.0671835 -1.8225116 4293977740
-1.2399894 7.0735736 -1.8191954 4293977740
-1.1492213 7.0894008 -1.8193278 4293977740
-1.0621804 7.0918789 -1.8163213 4293977740
-0.98052925 7.0903807 -1.8126955 4293977740
-32.610069 7.134788 -1.8124387 4293977740
-5.0160589 7.1930504 -1.8981791 4293977740
-4.2322421 7.1194739 -1.8813399 4293977740
-4.1548891 7.1418095 -1.8764482 4293977740
-4.0753841 7.1858482 -1.8760902 4293977740
-3.5067573 7.106339 -1.863752 4293977740
-3.4421692 7.1155782 -1.8586508 4293977740
-3.3519564 7.1645374 -1.8600496 4293977740
-3.2827413 7.1848679 -1.8573343 4293977740
-2.2434354 7.1165786 -1.8331738 4293977740
-2.1419435 7.115366 -1.8248882 4293977740
-2.0532038 7.14464 -1.825704 4293977740
-1.9454824 7.1601877 -1.821969 4293977740
-1.8545612 7.1849632 -1.8221407 4293977740
-1.7743802 7.1846552 -1.8168174 4293977740
-1.6091068 7.1917853 -1.8085748 4293977740
-1.0446306 7.1017056 -1.8182669 4293977740
-0.93100351 7.1019258 -1.8140219 4293977740
-0.85017574 7.1129751 -1.8142873 4293977740
-0.74861717 7.115169 -1.811767 4293977740
-0.64425892 7.1152067 -1.8089812 4293977740
-0.54046643 7.1185288 -1.8075221 4293977740
-0.43638313 7.1155405 -1.8047364 4293977740
-0.34702757 7.1227303 -1.8053555 4293977740
-0.25433654 7.1156731 -1.8023486 4293977740
-0.15650915 7.1178355 -1.8021718 4293977740
-40.631527 7.2879028 -1.8028579 4293977740
-36.650574 7.2770662 -1.8253748 4293977740
-32.593624 7.2922873 -1.8135281 4293977740
-4.9306269 7.2388706 -1.8956742 4293977740
-4.8513083 7.2934875 -1.8959017 4293977740
-4.0472155 7.215127 -1.8789536 4293977740
-3.9636936 7.231936 -1.8726301 4293977740
-3.8678417 7.2746983 -1.8706813 4293977740
-3.2366402 7.2134972 -1.8591446 4293977740
-3.1506979 7.2338338 -1.8550304 4293977740
-3.0508847 7.257369 -1.8505462 4293977740
-2.9590499 7.2885289 -1.8489418 4293977740
-1.8026513 7.2015224 -1.8229994 4293977740
-1.7321886 7.2078543 -1.8201659 4293977740
-1.6698999 7.2142444 -1.8180194 4293977740
-1.5485312 7.2262564 -1.8141128 4293977740
-1.4412643 7.2375913 -1.8112794 4293977740
-1.3487649 7.2477207 -1.8092617 4293977740
-1.2558541 7.27106 -1.8110218 4293977740
-1.1526383 7.2861786 -1.8105067 4293977740
-1.0501006 7.2858615 -1.8063425 4293977740
-0.96352196 7.292676 -1.8049686 4293977740
-4.7490559 7.3549633 -1.8948393 4293977740
-4.6783381 7.3802762 -1.890892 4293977740
-3.8147295 7.3034687 -1.8708404 4293977740
-3.74879 7.3309054 -1.8694086 4293977740
-3.6480963 7.3656745 -1.865909 4293977740
-3.5981729 7.3909574 -1.8660678 4293977740
-2.904819 7.3082695 -1.848448 4293977740
-2.841104 7.3404789 -1.8501761 4293977740
-2.7425148 7.3679276 -1.8477899 4293977740
-2.6593876 7.392159 -1.8463088 4293977740
-1.0292535 7.3032279 -1.8101202 4293977740
-0.91281438 7.3060236 -1.8067716 4293977740
-0.84434277 7.3178048 -1.807716 4293977740
-0.75387263 7.3148508 -1.8043246 4293977740
-0.64362407 7.3147058 -1.8014913 4293977740
-0.54315209 7.3243566 -1.8018775 4293977740
-0.37022692 7.3312702 -1.8008473 4293977740
-56.7701 7.4826341 -1.880934 4293977740
-5.0116682 7.4778204 -1.8979723 4293977740
-4.9752893 7.499733 -1.8975284 4293977740
-4.6385942 7.4290004 -1.8955983 4293977740
-4.5479069 7.4651055 -1.891651 4293977740
-4.4559369 7.4894648 -1.8854265 4293977740
-3.5358067 7.4102082 -1.8636817 4293977740
-3.4535999 7.4374404 -1.8611364 4293977740
-3.3549423 7.4719682 -1.8587898 4293977740
-2.6143775 7.4130197 -1.8474607 4293977740
-2.5537746 7.4265733 -1.8456506 4293977740
-2.4539638 7.4487157 -1.8428943 4293977740
-2.343617 7.4775615 -1.8412898 4293977740
-2.2632835 7.4881577 -1.837834 4293977740
-4.9305634 7.5346165 -1.8985645 4293977740
-4.8397002 7.5763373 -1.8953079 4293977740
-4.4668574 7.5214086 -1.8931692 4293977740
-4.3608675 7.550756 -1.8865652 4293977740
-4.2730074 7.5830145 -1.8829216 4293977740
-3.2572803 7.5135131 -1.8584317 4293977740
-3.1554127 7.5368352 -1.8538978 4293977740
-3.0571721 7.5678158 -1.8517503 4293977740
-2.9692442 7.5895386 -1.8487277 4293977740
-2.8768406 7.598772 -1.8426824 4293977740
-2.2170079 7.5050302 -1.8385745 4293977740
-2.1519322 7.5233707 -1.838451 4293977740
-2.0526893 7.5408731 -1.8359417 4293977740
-1.9546336 7.5454988 -1.8306757 4293977740
-1.8442484 7.5707474 -1.8300586 4293977740
-1.7446979 7.5882149 -1.8285365 4293977740
-1.6333419 7.5938249 -1.8237643 4293977740
-1.547462 7.5999222 -1.8208022 4293977740
-4.7536831 7.6252403 -1.8942715 4293977740
-4.6637807 7.667624 -1.891755 4293977740
-4.2142544 7.6180491 -1.8833771 4293977740
-4.1393471 7.6423621 -1.879961 4293977740
-4.0669274 7.6756606 -1.8788226 4293977740
-3.9937589 7.6975608 -1.8754067 4293977740
-2.9118843 7.6186895 -1.8503184 4293977740
-2.8439054 7.6380835 -1.8488867 4293977740
-2.756608 7.6508808 -1.8444721 4293977740
-2.660038 7.6875844 -1.8450686 4293977740
-2.5855842 7.6935158 -1.8405347 4293977740
-1.6586066 7.6147156 -1.8303466 4293977740
-1.5533423 7.629343 -1.8284543 4293977740
-1.4490938 7.6207047 -1.8211724 4293977740
-1.3562832 7.6382999 -1.8212957 4293977740
-1.2569759 7.6537571 -1.8209256 4293977740
-1.1464757 7.6769605 -1.8224064 4293977740
-1.0507683 7.6817088 -1.8201441 4293977740
-0.95071799 7.6826601 -1.8170996 4293977740
-0.84962231 7.6708012 -1.8110932 4293977740
-0.75236559 7.6836858 -1.8117926 4293977740
-0.64321178 7.6877565 -1.8103114 4293977740
-0.54295391 7.6869445 -1.8081312 4293977740
-0.44589511 7.685236 -1.8061152 4293977740
-0.34885588 7.680088 -1.8035235 4293977740
-0.24911386 7.6776299 -1.801919 4293977740
-0.1676552 7.678441 -1.8015487 4293977740
-4.6014047 7.7007108 -1.8908668 4293977740
-4.5466285 7.7188115 -1.8880543 4293977740
-4.4539962 7.7553964 -1.8846492 4293977740
-4.3783121 7.7928038 -1.883539 4293977740
-4.0268912 7.7022614 -1.879961 4293977740
-3.9377909 7.7277474 -1.8757101 4293977740
-3.8485785 7.7624207 -1.8735847 4293977740
-3.7718415 7.7859564 -1.8706243 4293977740
-2.5250926 7.7135825 -1.8405348 4293977740
-2.4451733 7.7356563 -1.8396994 4293977740
-2.3456666 7.7662716 -1.8396597 4293977740
-2.2424231 7.7801771 -1.8357621 4293977740
-5.2142115 7.8223839 -1.8975439 4293977740
-5.1149645 7.8864603 -1.897331 4293977740
-4.3193107 7.8167338 -1.8817625 4293977740
-4.2454944 7.8522429 -1.8808002 4293977740
-4.153892 7.8790646 -1.8763593 4293977740
-3.7327073 7.8145332 -1.872674 4293977740
-3.6547725 7.8324051 -1.8686886 4293977740
-3.5439005 7.8477993 -1.8611358 4293977740
-3.4561279 7.8833041 -1.8603767 4293977740
-2.1480072 7.8165326 -1.8380688 4293977740
-2.0515475 7.8542542 -1.8408926 4293977740
-1.9424311 7.8514824 -1.8336145 4293977740
-1.8398848 7.859664 -1.8296771 4293977740
-1.7370982 7.8649769 -1.8253422 4293977740
-1.6503906 7.8829665 -1.8251829 4293977740
-1.5875193 7.8912725 -1.8240694 4293977740
-5.042625 7.9286194 -1.8965502 4293977740
-4.9445415 7.9663997 -1.8921498 4293977740
-4.0652065 7.9208031 -1.8754711 4293977740
-3.9579902 7.9643469 -1.8733245 4293977740
-3.8846359 7.9972105 -1.8726583 4293977740
-3.4001007 7.901319 -1.8590102 4293977740
-3.3354454 7.9217544 -1.8574921 4293977740
-3.2530034 7.9699893 -1.8605286 4293977740
-3.1605058 7.9749675 -1.853545 4293977740
-1.5440458 7.9321876 -1.8318647 4293977740
-1.457698 7.953773 -1.8331374 4293977740
-1.3642737 7.9355164 -1.8247056 4293977740
-1.257607 7.9298081 -1.8190582 4293977740
-1.1579102 7.9237542 -1.813888 4293977740
-1.0535465 7.9266725 -1.8110642 4293977740
-0.95175952 7.9309216 -1.8089563 4293977740
-0.85284519 7.9400272 -1.8084393 4293977740
-0.7502802 7.9330039 -1.8041836 4293977740
-0.6627503 7.9381976 -1.8035473 4293977740
-0.55016559 7.9422507 -1.8024338 4293977740
-0.44774818 7.9404984 -1.8004451 4293977740
-5.4480681 8.0359068 -1.8977908 4293977740
-5.3762951 8.0794764 -1.896965 4293977740
-4.9010568 8.0177231 -1.8966923 4293977740
-4.8280969 8.0299044 -1.8907303 4293977740
-4.7484083 8.0637074 -1.888175 4293977740
-4.6961932 8.0761795 -1.8847682 4293977740
-3.8380604 8.013155 -1.8713261 4293977740
-3.7639732 8.0360155 -1.8688096 4293977740
-3.6549792 8.074173 -1.8663298 4293977740
-3.1387186 8.0118351 -1.8596935 4293977740
-3.0427783 8.0255222 -1.8546076 4293977740
-2.9525821 8.0536127 -1.8533931 4293977740
-2.8616159 8.0657034 -1.8488387 4293977740
-2.7370877 8.0889387 -1.8444358 4293977740
-5.3238106 8.1106577 -1.8963459 4293977740
-5.2489705 8.1492977 -1.8945911 4293977740
-5.1744838 8.1882191 -1.8930428 4293977740
-4.6391153 8.1142969 -1.8857619 4293977740
-4.547071 8.1602669 -1.8846263 4293977740
-4.4695525 8.1815062 -1.8805096 4293977740
-3.5473995 8.1090956 -1.8636284 4293977740
-3.4582036 8.1362524 -1.8612599 4293977740
-3.3499599 8.1743431 -1.8597794 4293977740
-3.2716506 8.1934795 -1.8571148 4293977740
-2.8119402 8.1003838 -1.8526341 4293977740
-2.7469966 8.1185246 -1.8517232 4293977740
-2.6543758 8.1383238 -1.8492941 4293977740
-2.5455749 8.1507139 -1.8443222 4293977740
-2.441673 8.1775541 -1.8432213 4293977740
-2.344527 8.178956 -1.8371487 4293977740
-2.2251382 8.1981134 -1.8339605 4293977740
-5.1229391 8.2205524 -1.8930428 4293977740
-5.0446258 8.2481575 -1.889327 4293977740
-4.9649639 8.2827129 -1.8868501 4293977740
-4.4208312 8.2146053 -1.8817871 4293977740
-4.3538909 8.2237024 -1.8766769 4293977740
-4.2602463 8.265275 -1.8752575 4293977740
-4.1815495 8.2930088 -1.8728442 4293977740
-3.2297845 8.2194767 -1.8591133 4293977740
-3.1462529 8.2277832 -1.8540062 4293977740
-3.0553751 8.2481174 -1.8510453 4293977740
-2.9640751 8.2799845 -1.8507491 4293977740
-2.3522382 8.2060766 -1.8437526 4293977740
-2.2732134 8.2222881 -1.8423864 4293977740
-2.1542501 8.2436447 -1.8399951 4293977740
-2.0508034 8.2715178 -1.8403368 4293977740
-1.968277 8.2715435 -1.8357824 4293977740
-1.853563 8.2886353 -1.8336569 4293977740
-4.9138346 8.3154354 -1.8872628 4293977740
-4.848546 8.3339987 -1.8836848 4293977740
-4.7568054 8.3769703 -1.8818955 4293977740
-4.678421 8.3919201 -1.8765285 4293977740
-4.1254129 8.3276024 -1.8741218 4293977740
-4.0424485 8.3515244 -1.8708569 4293977740
-3.9639325 8.3786678 -1.8687987 4293977740
-2.8546567 8.3122835 -1.8494538 4293977740
-2.7455482 8.3378649 -1.8470483 4293977740
-2.6538939 8.3531847 -1.8439394 4293977740
-2.5624788 8.3837175 -1.8443836 4293977740
-1.9345423 8.3035059 -1.8412477 4293977740
-1.8422965 8.3204689 -1.8403369 4293977740
-1.7471809 8.3230238 -1.8362378 4293977740
-1.653437 8.3309031 -1.8336569 4293977740
-1.5588149 8.3326149 -1.8298615 4293977740
-1.4531531 8.3467236 -1.8287228 4293977740
-1.3475603 8.3608284 -1.8278879 4293977740
-1.2516824 8.3488073 -1.8216634 4293977740
-1.1462389 8.3604717 -1.8208663 4293977740
-1.040881 8.372467 -1.8204489 4293977740
-0.94633365 8.3614693 -1.8152871 4293977740
-0.85407543 8.3687859 -1.8146797 4293977740
-0.74821764 8.3712311 -1.8128961 4293977740
-0.64220136 8.3701267 -1.8105806 4293977740
-0.54941964 8.3650179 -1.8078481 4293977740
-0.45710149 8.3647194 -1.8064817 4293977740
-0.351538 8.3592386 -1.8040147 4293977740
-0.24658348 8.3664122 -1.8048117 4293977740
-0.1544504 8.3618031 -1.8032176 4293977740
-0.062492549 8.3571529 -1.8018513 4293977740
0.042508103 8.3524418 -1.8007127 4293977740
0.13434599 8.351469 -1.8007127 4293977740
0.23921639 8.3471851 -1.8002571 4293977740
-4.6445169 8.4241276 -1.8790054 4293977740
-4.555253 8.4497414 -1.8747393 4293977740
-4.4562969 8.4883499 -1.8721243 4293977740
-3.909982 8.4007607 -1.8681598 4293977740
-3.847873 8.4164467 -1.8656044 4293977740
-3.7560909 8.4485588 -1.8637592 4293977740
-3.6619585 8.4869461 -1.8631912 4293977740
-2.45261 8.4127474 -1.8435695 4293977740
-2.3455219 8.4260712 -1.8397945 4293977740
-2.2528954 8.4519806 -1.8399428 4293977740
-2.1577289 8.4680548 -1.8380181 4293977740
-2.0630889 8.4855881 -1.8366857 4293977740
-1.9805667 8.4942341 -1.8342434 4293977740
-4.3489628 8.5430756 -1.8719869 4293977740
-4.2363491 8.5871429 -1.8696474 4293977740
-3.565671 8.5200806 -1.86163 4293977740
-3.464473 8.5406456 -1.8573713 4293977740
-3.3551681 8.5790749 -1.8563422 4293977740
-3.238039 8.596364 -1.8506994 4293977740
-1.9267159 8.5046101 -1.8337991 4293977740
-1.8473822 8.5265007 -1.8347615 4293977740
-1.75073 8.5329351 -1.8316526 4293977740
-1.6422722 8.5486546 -1.8303572 4293977740
-1.5331851 8.5601664 -1.8283958 4293977740
-1.4396416 8.580348 -1.8292841 4293977740
-1.3422326 8.5770454 -1.8249911 4293977740
-1.2477418 8.5906439 -1.824843 4293977740
-1.1550593 8.5839033 -1.8204021 4293977740
-1.0138501 8.5873585 -1.8171451 4293977740
-0.93202764 8.5887604 -1.815369 4293977740
-0.83583993 8.5816736 -1.81152 4293977740
-0.7460804 8.5918846 -1.8119639 4293977740
-0.65085906 8.5904951 -1.8098916 4293977740
-0.55517578 8.5796213 -1.8058945 4293977740
-0.44930318 8.5810661 -1.8048213 4293977740
-0.33922017 8.586318 -1.8048586 4293977740
-0.24433666 8.5758858 -1.8017496 4293977740
-0.17249307 8.5779905 -1.8018236 4293977740
-0.064643607 8.5746155 -1.8007135 4293977740
-5.4560962 8.6882133 -1.8996685 4293977740
-4.1385589 8.6267405 -1.8681334 4293977740
-4.0392966 8.6628666 -1.866069 4293977740
-3.9528611 8.6904869 -1.8637295 4293977740
-3.243866 8.6118698 -1.8543193 4293977740
-3.1439657 8.6332617 -1.8511254 4293977740
-3.0454369 8.6574602 -1.8488539 4293977740
-2.9535792 8.6857691 -1.8481444 4293977740
-1.0780163 8.6070423 -1.8233627 4293977740
-5.4120073 8.7088318 -1.8984931 4293977740
-5.3369904 8.7404165 -1.8960122 4293977740
-5.2492023 8.7816401 -1.8939885 4293977740
-3.9134698 8.7125998 -1.8645551 4293977740
-3.8465824 8.7344437 -1.8630414 4293977740
-3.7438631 8.7612314 -1.859601 4293977740
-3.6435704 8.7864418 -1.8562982 4293977740
-2.854269 8.7065706 -1.8455893 4293977740
-2.755827 8.7293501 -1.8437439 4293977740
-2.656112 8.7472734 -1.8410468 4293977740
-2.5640297 8.7733488 -1.8407632 4293977740
-2.4841635 8.7899017 -1.8394144 4293977740
-5.208262 8.8071365 -1.8941844 4293977740
-5.1523714 8.8228884 -1.8912466 4293977740
-5.0682201 8.8643122 -1.8900057 4293977740
-4.9821553 8.8965349 -1.8871331 4293977740
-3.6442046 8.8074389 -1.8604267 4293977740
-3.5488033 8.8244658 -1.8561606 4293977740
-3.4470224 8.8514185 -1.8535457 4293977740
-3.3441753 8.8747559 -1.8503803 4293977740
-3.2758491 8.890523 -1.8484535 4293977740
-2.4286242 8.8044081 -1.8392017 4293977740
-2.3502119 8.8164787 -1.837285 4293977740
-2.2397418 8.8374958 -1.8356528 4293977740
-2.1397002 8.8501863 -1.8330975 4293977740
-2.0405474 8.86555 -1.8313942 4293977740
-1.9422526 8.8842697 -1.8306843 4293977740
-1.8617191 8.8945427 -1.8291938 4293977740
-4.9261541 8.927681 -1.8871334 4293977740
-4.8621588 8.9551945 -1.8858274 4293977740
-4.7589836 8.9882851 -1.8819102 4293977740
-3.2255812 8.9046936 -1.8476279 4293977740
-3.1459043 8.9248495 -1.8459765 4293977740
-3.046526 8.9558134 -1.8452883 4293977740
-2.9441769 8.9776239 -1.8428111 4293977740
-2.870378 8.9905682 -1.8406091 4293977740
-1.8199747 8.9041872 -1.8294067 4293977740
-1.7498569 8.9175377 -1.8292646 4293977740
-1.6489172 8.9208546 -1.825858 4293977740
-1.5499512 8.9339533 -1.8248644 4293977740
-1.4506197 8.9440203 -1.8234448 4293977740
-1.3560897 8.9535522 -1.8223091 4293977740
-1.2545618 8.9459791 -1.8174829 4293977740
-1.1554855 8.9540596 -1.8163471 4293977740
-1.060461 8.9553156 -1.8140758 4293977740
-0.96097344 8.957366 -1.8120884 4293977740
-0.8606143 8.9479332 -1.8078299 4293977740
-0.76621222 8.9486837 -1.8061265 4293977740
-0.6673553 8.9507189 -1.804849 4293977740
-0.56856388 8.9523153 -1.8037134 4293977740
-0.48361731 8.9462357 -1.8013 4293977740
-0.39910889 8.9465017 -1.8004484 4293977740
-22.561121 9.0959749 -1.8332213 4293977740
-4.6565919 9.0336657 -1.8804737 4293977740
-4.5493951 9.0691099 -1.8770787 4293977740
-2.8282733 9.0049171 -1.8408155 4293977740
-2.7463572 9.0244017 -1.8396457 4293977740
-2.6451337 9.0477915 -1.8382697 4293977740
-2.5413864 9.0618982 -1.8351045 4293977740
-2.4402483 9.0842524 -1.8340034 4293977740
-2.3625665 9.0987377 -1.8327646 4293977740
-4.446569 9.1126928 -1.8757731 4293977740
-4.3478031 9.1522455 -1.8743367 4293977740
-4.2384677 9.1810722 -1.8702888 4293977740
-2.3048623 9.1115198 -1.8323519 4293977740
-2.240732 9.1187201 -1.8305629 4293977740
-2.1619067 9.1484928 -1.8327646 4293977740
-2.0706272 9.1468248 -1.8280855 4293977740
-1.9529769 9.1603003 -1.8255398 4293977740
-1.8366202 9.1787081 -1.8243699 4293977740
-1.7342306 9.1912861 -1.8228561 4293977740
-5.5305147 9.249176 -1.8981365 4293977740
-5.4386353 9.2933035 -1.8964573 4293977740
-4.1529517 9.2168694 -1.8697011 4293977740
-4.062953 9.2422304 -1.8670244 4293977740
-3.9616134 9.2740574 -1.8648047 4293977740
-1.7360779 9.200943 -1.8249204 4293977740
-1.6326095 9.2072458 -1.8223056 4293977740
-1.5357822 9.2218895 -1.8218927 4293977740
-1.4488338 9.2207851 -1.8187275 4293977740
-1.3631269 9.2259083 -1.8170761 4293977740
-1.2645453 9.2261286 -1.814186 4293977740
-1.1621979 9.2330046 -1.8128098 4293977740
-1.0581694 9.224494 -1.8084059 4293977740
-0.95570666 9.226491 -1.8064793 4293977740
-0.8536182 9.2305994 -1.8052406 4293977740
-0.75628537 9.2312126 -1.8035892 4293977740
-0.65629816 9.2273922 -1.8011808 4293977740
-0.54749149 9.2335777 -1.8009744 4293977740
-0.46033761 9.2363739 -1.8005615 4293977740
-5.3454146 9.3347969 -1.8944048 4293977740
-5.26406 9.3797531 -1.8942181 4293977740
-3.8566754 9.310401 -1.8633684 4293977740
-3.7528524 9.3492117 -1.8627154 4293977740
-3.6448963 9.3770981 -1.8599733 4293977740
-3.5854583 9.3986206 -1.8597119 4293977740
-54.697083 9.4079809 -1.8166566 4293977740
-5.2129169 9.4094315 -1.8944048 4293977740
-5.1449494 9.4377527 -1.892912 4293977740
-5.0505233 9.4641762 -1.8888074 4293977740
-4.9492664 9.4886732 -1.883956 4293977740
-3.5218983 9.4089975 -1.8571659 4293977740
-3.4526215 9.4262695 -1.855599 4293977740
-3.3616364 9.4448481 -1.8529223 4293977740
-3.2554865 9.4750471 -1.8516164 4293977740
-3.165267 9.4863148 -1.8479605 4293977740
-4.9675083 9.5235405 -1.8914193 4293977740
-4.8473196 9.5477877 -1.8850756 4293977740
-4.7500601 9.5790272 -1.8820901 4293977740
-4.6962008 9.5836849 -1.8783585 4293977740
-3.1217372 9.5048685 -1.8487437 4293977740
-3.0450087 9.52283 -1.847438 4293977740
-2.9353583 9.5401001 -1.8441736 4293977740
-2.8443007 9.5639124 -1.8434554 4293977740
-2.7569962 9.5815802 -1.8419539 4293977740
-2.6913681 9.598917 -1.8416927 4293977740
-4.6430311 9.6084328 -1.8781719 4293977740
-4.5498433 9.6402082 -1.875995 4293977740
-4.4710469 9.6561403 -1.8723878 4293977740
-4.3942537 9.6891689 -1.8720144 4293977740
-2.6362481 9.6050205 -1.8399298 4293977740
-2.5460527 9.6208448 -1.8382977 4293977740
-2.458225 9.6349297 -1.8366002 4293977740
-2.3493977 9.6498814 -1.8342499 4293977740
-2.2389784 9.6570206 -1.8305284 4293977740
-2.1535718 9.6794004 -1.8311161 4293977740
-2.0447485 9.6916132 -1.8288962 4293977740
-1.9762845 9.6931801 -1.8264151 4293977740
-4.455524 9.7022438 -1.8791047 4293977740
-4.3562393 9.7267618 -1.8755596 4293977740
-4.2606039 9.7450447 -1.8713926 4293977740
-4.1670275 9.7740602 -1.8694023 4293977740
-4.0755916 9.7934198 -1.8660437 4293977740
-1.9237006 9.7077255 -1.8271987 4293977740
-1.8545086 9.7182007 -1.826611 4293977740
-1.7618605 9.7297554 -1.825501 4293977740
-1.6519698 9.7317743 -1.8221062 4293977740
-1.5449511 9.7499971 -1.8222367 4293977740
-1.4409056 9.7526817 -1.8196253 4293977740
-1.3499796 9.754488 -1.8174055 4293977740
-1.2595861 9.7586365 -1.8158385 4293977740
-1.1548938 9.7505341 -1.8116602 4293977740
-1.0467941 9.7548399 -1.810093 4293977740
-0.93788058 9.7488375 -1.8066982 4293977740
-0.84578818 9.754982 -1.806241 4293977740
-0.75816417 9.7519798 -1.8042172 4293977740
-0.65511268 9.7456856 -1.8014752 4293977740
-0.58383948 9.75354 -1.8021281 4293977740
-4.1170473 9.8059044 -1.8712682 4293977740
-4.0173421 9.8269978 -1.8677231 4293977740
-3.9452233 9.8487453 -1.8664168 4293977740
-3.8758798 9.8773155 -1.8666036 4293977740
-3.7388403 9.8921547 -1.8598863 4293977740
-5.5522141 9.9538479 -1.8982143 4293977740
-5.4803157 9.990345 -1.8976841 4293977740
-3.8338997 9.9073935 -1.8690292 4293977740
-3.7559743 9.9371977 -1.8690292 4293977740
-3.6340196 9.9440603 -1.8621879 4293977740
-3.5377095 9.9711094 -1.8608193 4293977740
-3.444102 9.9885445 -1.8580828 4293977740
-3.3642297 9.9770861 -1.8511169 4293977740
-5.4460883 10.002322 -1.8966243 4293977740
-5.3658023 10.041859 -1.8960352 4293977740
-5.2683878 10.087042 -1.8950341 4293977740
-3.3466556 10.028577 -1.8593267 4293977740
-3.2604253 10.032115 -1.8548485 4293977740
-3.1430368 10.045493 -1.850495 4293977740
-3.0440435 10.060903 -1.8477583 4293977740
-2.9568388 10.076594 -1.8458925 4293977740
-2.8599744 10.078007 -1.8410413 4293977740
-2.760148 10.08743 -1.8376828 4293977740
-6.1495271 10.190247 -1.8969736 4293977740
-5.2158341 10.102148 -1.8930907 4293977740
-5.1451454 10.120654 -1.890264 4293977740
-5.0446725 10.145415 -1.8861417 4293977740
-4.9558134 10.17968 -1.8846104 4293977740
-4.845346 10.195699 -1.8786037 4293977740
-2.768549 10.117781 -1.8436536 4293977740
-2.6514337 10.126046 -1.8394243 4293977740
-2.5613122 10.138751 -1.837496 4293977740
-2.4615319 10.134095 -1.8320853 4293977740
-2.351011 10.165008 -1.832956 4293977740
-2.2563984 10.167687 -1.829473 4293977740
-2.1577408 10.175668 -1.826985 4293977740
-2.0409026 10.175064 -1.8223828 4293977740
-1.9780675 10.193471 -1.8235024 4293977740
-1.8533808 10.191833 -1.8188376 4293977740
-6.1561642 10.201274 -1.899174 4293977740
-6.0778718 10.252697 -1.8998511 4293977740
-5.9470415 10.269848 -1.8910501 4293977740
-4.857542 10.221443 -1.8837271 4293977740
-4.7469683 10.236431 -1.8777204 4293977740
-4.649322 10.264174 -1.8749524 4293977740
-4.5224104 10.297855 -1.8711834 4293977740
-2.0558095 10.207059 -1.8289132 4293977740
-1.9348234 10.227763 -1.8283534 4293977740
-1.8690901 10.231992 -1.8268609 4293977740
-1.7516447 10.224143 -1.8215119 4293977740
-1.6358658 10.222744 -1.8176557 4293977740
-1.5383282 10.23028 -1.8162255 4293977740
-1.446128 10.236072 -1.8147949 4293977740
-1.3507532 10.237889 -1.8126802 4293977740
-1.2642099 10.264767 -1.8156656 4293977740
-1.1472018 10.242255 -1.8088241 4293977740
-1.0516174 10.262078 -1.8106278 4293977740
-0.9758637 10.236976 -1.8044704 4293977740
-0.84741735 10.251314 -1.8050302 4293977740
-0.7411713 10.238937 -1.8011119 4293977740
-5.9568524 10.305268 -1.8971429 4293977740
-5.8495579 10.324619 -1.8908808 4293977740
-5.7506847 10.357844 -1.8875523 4293977740
-5.6455851 10.398336 -1.8849571 4293977740
-4.5820274 10.301639 -1.8761301 4293977740
-4.4581323 10.327234 -1.871419 4293977740
-4.3532457 10.351269 -1.8680032 4293977740
-4.2545061 10.373755 -1.864941 4293977740
-4.1207919 10.386724 -1.8581095 4293977740
-4.0859952 10.394116 -1.8570497 4293977740
-5.5672603 10.429291 -1.8832645 4293977740
-5.4601483 10.458316 -1.8790897 4293977740
-4.1894131 10.416546 -1.8676498 4293977740
-4.0362539 10.411406 -1.8566961 4293977740
-3.9395933 10.45325 -1.8575207 4293977740
-3.8308959 10.462505 -1.8522793 4293977740
-3.7538748 10.480961 -1.8506894 4293977740
-3.6884098 10.47917 -1.8464491 4293977740
-5.3478012 10.523579 -1.880218 4293977740
-5.2282491 10.560782 -1.8767203 4293977740
-5.1255765 10.561398 -1.8690474 4293977740
-5.0992408 10.591643 -1.8717554 4293977740
-3.6333022 10.506704 -1.8478625 4293977740
-3.5396936 10.529603 -1.8463315 4293977740
-3.446249 10.58094 -1.849806 4293977740
-3.3972471 10.599891 -1.8503361 4293977740
-6.514626 10.648668 -1.8979762 4293977740
-6.4654055 10.680951 -1.8982992 4293977740
-5.0362682 10.609694 -1.8698937 4293977740
-4.9582129 10.638804 -1.8687088 4293977740
-4.8520117 10.672475 -1.8663393 4293977740
-4.7759442 10.683026 -1.8626161 4293977740
-3.3256092 10.605034 -1.8473327 4293977740
-3.2476792 10.618848 -1.8455658 4293977740
-3.1479604 10.640255 -1.8440933 4293977740
-3.0505214 10.658747 -1.8423858 4293977740
-2.9524822 10.674359 -1.8403245 4293977740
-2.8502023 10.684496 -1.8372622 4293977740
-2.770453 10.688185 -1.8342588 4293977740
-2.6646471 10.693767 -1.8305485 4293977740
-6.4089413 10.701125 -1.8963602 4293977740
-6.3544378 10.724386 -1.8950673 4293977740
-6.2481294 10.775233 -1.8934511 4293977740
-4.7231464 10.700011 -1.8616004 4293977740
-4.6683402 10.712196 -1.8597387 4293977740
-4.5590291 10.736664 -1.8561845 4293977740
-4.4349027 10.772189 -1.8535892 4293977740
-4.3388176 10.778712 -1.8483988 4293977740
-2.7034798 10.706351 -1.8344355 4293977740
-2.6183898 10.723412 -1.8337288 4293977740
-2.532527 10.736933 -1.8324921 4293977740
-2.4524515 10.736307 -1.8291352 4293977740
-2.3516114 10.747398 -1.8271328 4293977740
-2.2545214 10.761526 -1.8259552 4293977740
-2.1494758 10.764239 -1.8226571 4293977740
-2.0486562 10.741472 -1.8151782 4293977740
-1.9474338 10.744586 -1.8124102 4293977740
-1.8498361 10.750544 -1.810408 4293977740
-1.7469926 10.758405 -1.8087591 4293977740
-1.6546161 10.77732 -1.8095245 4293977740
-1.4377162 10.769696 -1.8026345 4293977740
-1.3545547 10.792322 -1.8047545 4293977740
-1.2512167 10.790958 -1.802281 4293977740
-6.1514153 10.822798 -1.89232 4293977740
-6.0666046 10.851372 -1.8895727 4293977740
-5.9764614 10.890021 -1.8879567 4293977740
-4.3159523 10.819729 -1.8534764 4293977740
-4.2514935 10.806026 -1.847214 4293977740
-4.1441464 10.831795 -1.8446754 4293977740
-4.0370436 10.857472 -1.8423058 4293977740
-3.9564533 10.875545 -1.8404441 4293977740
-3.8765044 10.894901 -1.8389208 4293977740
-3.7568388 10.882514 -1.8301197 4293977740
-1.5586052 10.811816 -1.8131169 4293977740
-1.4780897 10.813904 -1.8114681 4293977740
-1.355733 10.802148 -1.8065212 4293977740
-5.9213319 10.911132 -1.8866639 4293977740
-5.8438468 10.931555 -1.8835933 4293977740
-5.7663488 10.951445 -1.880523 4293977740
-5.6765618 10.989367 -1.87923 4293977740
-3.6447542 10.927466 -1.8312482 4293977740
-3.5353897 10.932642 -1.8262271 4293977740
-3.4541485 10.945165 -1.8240268 4293977740
-3.3400202 10.942042 -1.8177081 4293977740
-3.2414887 10.957594 -1.8153949 4293977740
-3.1593051 10.964153 -1.8125179 4293977740
-3.0471518 10.962415 -1.8069887 4293977740
-2.9366331 10.964674 -1.8023627 4293977740
-20.546665 11.016813 -1.8810103 4293977740
-5.6166568 11.00018 -1.8763213 4293977740
-5.5447769 11.029945 -1.8753517 4293977740
-5.4619031 11.05909 -1.873574 4293977740
-5.3997197 11.086329 -1.8730893 4293977740
-2.6479363 11.06026 -1.8060862 4293977740
-7.0679832 11.177614 -1.8958383 4293977740
-5.3327484 11.103335 -1.8708267 4293977740
-5.2457333 11.122911 -1.8675947 4293977740
-5.1620169 11.148941 -1.8656554 4293977740
-5.0537181 11.182533 -1.8632854 4293977740
-2.6282697 11.131798 -1.8172567 4293977740
-2.536916 11.135413 -1.8143231 4293977740
-2.4310868 11.155321 -1.8137026 4293977740
-2.359098 11.1617 -1.8121793 4293977740
-2.2482741 11.156377 -1.8074404 4293977740
-2.1394756 11.158709 -1.8042245 4293977740
-2.084481 11.156095 -1.8020242 4293977740
-40.043797 11.292369 -1.8187377 4293977740
-7.0412707 11.213139 -1.898279 4293977740
-6.9253926 11.263018 -1.8953806 4293977740
-6.8010578 11.298192 -1.8900414 4293977740
-4.945919 11.208754 -1.8599992 4293977740
-4.8511424 11.231824 -1.8572521 4293977740
-4.7608776 11.240358 -1.8527272 4293977740
-4.6573238 11.265858 -1.8500338 4293977740
-4.5246739 11.295026 -1.8462631 4293977740
-6.8529649 11.303783 -1.8949227 4293977740
-6.7513084 11.336025 -1.8911093 4293977740
-6.6595445 11.384451 -1.8903465 4293977740
-6.5899291 11.388382 -1.8854649 4293977740
-4.5689635 11.302733 -1.8501415 4293977740
-4.4625101 11.319695 -1.8462632 4293977740
-4.3522758 11.343478 -1.8433542 4293977740
-4.2473469 11.371646 -1.8415766 4293977740
-4.1954112 11.396184 -1.8423845 4293977740
-6.5206985 11.433834 -1.8862276 4293977740
-6.4295092 11.461545 -1.8830241 4293977740
-6.3558497 11.477751 -1.8796685 4293977740
-4.1200557 11.412087 -1.8406069 4293977740
-4.0382748 11.438122 -1.8401221 4293977740
-3.9480782 11.439316 -1.8354356 4293977740
-3.8587468 11.471841 -1.8357588 4293977740
-3.7784429 11.410228 -1.8220226 4293977740
-6.3312278 11.518424 -1.8833292 4293977740
-6.2431316 11.529317 -1.8782952 4293977740
-6.1682673 11.563943 -1.8775327 4293977740
-6.0698781 11.598045 -1.8750919 4293977740
-6.0142412 11.624784 -1.8747866 4293977740
-5.9289155 11.638577 -1.8706682 4293977740
-5.842514 11.67222 -1.8692949 4293977740
-5.7248645 11.68861 -1.8634984 4293977740
-5.7800045 11.70775 -1.8699052 4293977740
-5.6577692 11.737673 -1.8657866 4293977740
-5.5694389 11.742663 -1.8606 4293977740
-5.4547815 11.78658 -1.8592272 4293977740
-5.5077295 11.803387 -1.8650239 4293977740
-5.4226966 11.814425 -1.8610575 4293977740
-5.3446708 11.840153 -1.8596849 4293977740
-5.2519908 11.857756 -1.8563287 4293977740
-5.1573606 11.870152 -1.8522099 4293977740
-5.0635972 11.883578 -1.8483963 4293977740
-4.9901385 11.892146 -1.8451927 4293977740
-4.3391662 11.882106 -1.8070561 4293977740
-4.9596152 11.924178 -1.8479388 4293977740
-4.8608208 11.95052 -1.8459048 4293977740
-4.7349339 11.963081 -1.8404639 4293977740
-4.6455774 11.984264 -1.8384808 4293977740
-4.5732594 11.993048 -1.8357351 4293977740
-4.4211745 11.988866 -1.8268872 4293977740
-4.5362639 12.009203 -1.83604 4293977740
-4.4922481 12.006745 -1.8332942 4293977740
-7.1434522 12.125057 -1.8990769 4293977740
-7.0546122 12.170128 -1.8981836 4293977740
-6.9687309 12.197895 -1.8953547 4293977740
-6.9245377 12.209396 -1.893568 4293977740
-6.8587327 12.227192 -1.891037 4293977740
-6.7605724 12.277224 -1.8904413 4293977740
-6.6955862 12.295918 -1.8882082 4293977740
-6.6394348 12.330821 -1.8888035 4293977740
-6.5705996 12.341859 -1.8853791 4293977740
-6.447473 12.390618 -1.8832451 4293977740
-6.364706 12.421535 -1.8816569 4293977740
-6.2545676 12.446326 -1.8774878 4293977740
-6.152267 12.486239 -1.8759992 4293977740
-6.0590777 12.49437 -1.8709369 4293977740
-7.5277071 12.57877 -1.898097 4293977740
-7.4597416 12.599666 -1.8956668 4293977740
-6.1121411 12.503729 -1.8757014 4293977740
-6.0086479 12.540634 -1.8739147 4293977740
-5.944006 12.55716 -1.8719791 4293977740
-5.8377361 12.587298 -1.8692991 4293977740
-7.3508987 12.641292 -1.8929032 4293977740
-7.2412214 12.680941 -1.8899488 4293977740
-5.7507706 12.60662 -1.8664701 4293977740
-5.6463537 12.639653 -1.8645345 4293977740
-5.5560737 12.677414 -1.8642368 4293977740
-5.4542789 12.688205 -1.8596212 4293977740
-7.2013502 12.703625 -1.8899488 4293977740
-7.1375237 12.730499 -1.8888052 4293977740
-7.0243893 12.762777 -1.8849454 4293977740
-6.9522977 12.774048 -1.8813717 4293977740
-5.3521748 12.725176 -1.8587278 4293977740
-5.2545633 12.744379 -1.8557501 4293977740
-5.1614189 12.773877 -1.8545589 4293977740
-5.0623121 12.787933 -1.8509855 4293977740
-4.2799101 12.728909 -1.8021498 4293977740
-6.8486285 12.822392 -1.8804188 4293977740
-6.7406588 12.862403 -1.8782268 4293977740
-6.6740332 12.882589 -1.8763684 4293977740
-4.9660969 12.80866 -1.8486032 4293977740
-4.8583727 12.82876 -1.8456255 4293977740
-4.758019 12.836771 -1.8414567 4293977740
-4.6417975 12.863128 -1.8391737 4293977740
-4.5332313 12.878076 -1.8357987 4293977740
-4.4657259 12.879644 -1.8326721 4293977740
-6.5443854 12.929305 -1.8738428 4293977740
-6.4615512 12.967267 -1.8733664 4293977740
-6.369453 12.98628 -1.8699353 4293977740
-4.3875594 12.915899 -1.834012 4293977740
-6.3055868 13.010834 -1.8690777 4293977740
-6.2407689 13.033269 -1.867934 4293977740
-6.1712108 13.04553 -1.8652179 4293977740
-6.0585289 13.072064 -1.8617873 4293977740
-5.9956279 13.097788 -1.8613584 4293977740
-7.5321245 13.157192 -1.8966509 4293977740
-7.469532 13.191712 -1.8965129 4293977740
-7.386054 13.188708 -1.8904322 4293977740
-5.9338369 13.125897 -1.8613584 4293977740
-5.8654256 13.13925 -1.859071 4293977740
-5.76682 13.167677 -1.8570697 4293977740
-5.6622381 13.181777 -1.8529241 4293977740
-7.35706 13.234373 -1.8940252 4293977740
-7.2760363 13.235009 -1.8886359 4293977740
-7.1611204 13.271662 -1.8854575 4293977740
-5.553524 13.213991 -1.8510658 4293977740
-5.4599714 13.252895 -1.8510656 4293977740
-5.357975 13.271005 -1.8479209 4293977740
-5.2953815 13.296124 -1.8479209 4293977740
-7.1059251 13.31928 -1.8876685 4293977740
-7.0421572 13.350864 -1.8873922 4293977740
-6.9604282 13.347856 -1.8817264 4293977740
-5.2268534 13.306199 -1.8456337 4293977740
-5.1547585 13.306683 -1.8419168 4293977740
-5.044806 13.332884 -1.8397725 4293977740
-4.9400454 13.340373 -1.835484 4293977740
-4.8409095 13.361952 -1.8334827 4293977740
-4.7208824 13.357601 -1.8270499 4293977740
-4.6290717 13.364559 -1.8236189 4293977740
-4.5386028 13.374668 -1.8207598 4293977740
-4.4519663 13.395412 -1.8196163 4293977740
-6.8572063 13.405626 -1.8822792 4293977740
-6.745862 13.420973 -1.877166 4293977740
-6.646059 13.458551 -1.8756459 4293977740
-6.5812354 13.487083 -1.8752314 4293977740
-6.454669 13.495433 -1.8685981 4293977740
-4.5066972 13.418868 -1.8253343 4293977740
-4.3453941 13.426152 -1.8190446 4293977740
-6.5158896 13.514376 -1.8746785 4293977740
-6.4215474 13.535345 -1.8716384 4293977740
-6.3509912 13.551097 -1.8694273 4293977740
-6.2808104 13.567377 -1.8673545 4293977740
-6.1352382 13.58713 -1.8614122 4293977740
-6.1494608 13.618661 -1.866249 4293977740
-6.060955 13.650775 -1.8652817 4293977740
-5.9580812 13.649514 -1.8593395 4293977740
-5.8630266 13.694899 -1.8598921 4293977740
-5.7726965 13.691353 -1.8545028 4293977740
-5.7364969 13.725883 -1.8569902 4293977740
-5.6396751 13.735956 -1.8531208 4293977740
-5.5424228 13.775461 -1.8531208 4293977740
-5.4351659 13.789415 -1.8493897 4293977740
-8.0222359 13.809896 -1.8994125 4293977740
-7.9308567 13.852274 -1.8982296 4293977740
-7.8522673 13.866245 -1.8946811 4293977740
-5.3400173 13.833947 -1.8503569 4293977740
-5.2309742 13.841696 -1.845935 4293977740
-5.1336031 13.846438 -1.8417891 4293977740
-5.0662847 13.864866 -1.84096 4293977740
-4.9416585 13.860362 -1.834465 4293977740
-4.8470364 13.869608 -1.8312868 4293977740
-4.7463555 13.86044 -1.8254827 4293977740
-4.6740513 13.861979 -1.8224425 4293977740
-4.5579829 13.876601 -1.8192642 4293977740
-4.4904151 13.891347 -1.8182968 4293977740
-7.768362 13.921349 -1.8956009 4293977740
-7.6587811 13.955903 -1.8925781 4293977740
-7.5486217 13.988794 -1.889424 4293977740
-7.4694996 13.999771 -1.885744 4293977740
-4.4237075 13.908577 -1.8177439 4293977740
-4.3569446 13.925466 -1.8171912 4293977740
-4.2549558 13.905206 -1.8102816 4293977740
-7.4015861 14.031313 -1.8852183 4293977740
-7.328023 14.051962 -1.8831153 4293977740
-7.2232385 14.066029 -1.8783838 4293977740
-7.175396 14.081593 -1.8773323 4293977740
-7.1320229 14.105832 -1.8775953 4293977740
-7.0370407 14.137934 -1.8757552 4293977740
-6.9349566 14.155177 -1.8718123 4293977740
-6.839829 14.186003 -1.8699723 4293977740
-6.7909393 14.198484 -1.8686579 4293977740
-6.7445903 14.216171 -1.8681325 4293977740
-6.6471457 14.241188 -1.865635 4293977740
-6.533855 14.260788 -1.8616923 4293977740
-6.4525051 14.290215 -1.8607723 4293977740
-6.3593035 14.292833 -1.8560408 4293977740
-8.4503145 14.376054 -1.8979827 4293977740
-6.250936 14.321119 -1.853675 4293977740
-6.1397648 14.34215 -1.8503894 4293977740
-6.0293617 14.364212 -1.8473665 4293977740
-5.9298835 14.379854 -1.8442122 4293977740
-5.8831744 14.394743 -1.8436865 4293977740
-8.356842 14.423685 -1.8972276 4293977740
-8.2838583 14.454318 -1.895969 4293977740
-8.1980915 14.462096 -1.8914386 4293977740
-8.0993433 14.499453 -1.8894252 4293977740
-5.8341827 14.403974 -1.8423723 4293977740
-5.7398872 14.431121 -1.8410578 4293977740
-5.6425896 14.450286 -1.8386921 4293977740
-5.5221634 14.476577 -1.836195 4293977740
-5.4507399 14.49411 -1.8350121 4293977740
-8.1623163 14.505087 -1.8939556 4293977740
-8.0299721 14.535715 -1.8891732 4293977740
-7.950943 14.554207 -1.8864048 4293977740
-7.8700509 14.568822 -1.8831326 4293977740
-5.3581886 14.524331 -1.8344865 4293977740
-5.2445574 14.532003 -1.8302807 4293977740
-5.1354275 14.550978 -1.8277835 4293977740
-5.0370541 14.563319 -1.8250235 4293977740
-4.9645286 14.575614 -1.8234463 4293977740
-4.8490982 14.573656 -1.8183205 4293977740
-4.7364349 14.578377 -1.8142463 4293977740
-4.6417046 14.598432 -1.8129319 4293977740
-4.5648279 14.594591 -1.8093834 4293977740
-7.8022475 14.607496 -1.8833846 4293977740
-7.7254486 14.629163 -1.8812448 4293977740
-7.6256394 14.662455 -1.8791057 4293977740
-7.551044 14.687601 -1.8775953 4293977740
-4.4526362 14.638535 -1.8105662 4293977740
-4.3431611 14.649652 -1.8078063 4293977740
-7.450563 14.718838 -1.8753301 4293977740
-7.3638592 14.719134 -1.870422 4293977740
-7.2410421 14.762266 -1.8684086 4293977740
-7.1348286 14.77975 -1.8645073 4293977740
-7.0350537 14.809955 -1.8624939 4293977740
-6.9601479 14.832132 -1.8609836 4293977740
-6.839324 14.877313 -1.859725 4293977740
-6.7634077 14.896752 -1.8579634 4293977740
-6.6603928 14.918087 -1.8550688 4293977740
-6.5569887 14.937824 -1.8520483 4293977740
-6.4297199 14.966056 -1.8489021 4293977740
-6.3483243 14.970617 -1.8453783 4293977740
-6.2207065 14.996176 -1.8421065 4293977740
-6.2792377 15.004031 -1.8458821 4293977740
-6.1698089 15.006462 -1.8408478 4293977740
-6.0720778 15.036623 -1.8397152 4293977740
-5.9551096 15.052366 -1.8360658 4293977740
-5.8406954 15.073753 -1.8332971 4293977740
-5.7674775 15.095571 -1.8325421 4293977740
-5.6655741 15.112904 -1.8300253 4293977740
-5.5559101 15.145081 -1.8290184 4293977740
-5.4483619 15.183073 -1.8288924 4293977740
-5.3400769 15.180511 -1.8239845 4293977740
-5.2375169 15.193114 -1.8212157 4293977740
-8.7471333 15.27796 -1.897756 4293977740
-5.2969103 15.210335 -1.8257464 4293977740
-5.1429024 15.228523 -1.8215934 4293977740
-5.0300665 15.208707 -1.8146718 4293977740
-4.9307556 15.228699 -1.8131615 4293977740
-4.8508482 15.226212 -1.8097636 4293977740
-4.7453961 15.225141 -1.8056108 4293977740
-4.6680956 15.229284 -1.8032196 4293977740
-4.5709019 15.253577 -1.8025903 4293977740
-8.6470413 15.325738 -1.8968022 4293977740
-8.5592003 15.33857 -1.8929861 4293977740
-8.4530687 15.374682 -1.8906009 4293977740
-8.3401775 15.397833 -1.8865464 4293977740
-8.4066381 15.404645 -1.891078 4293977740
-8.2381134 15.440277 -1.8852345 4293977740
-8.129818 15.470657 -1.8823724 4293977740
-8.0200996 15.497667 -1.8791525 4293977740
-7.9383469 15.51849 -1.8768868 4293977740
-7.8348746 15.556562 -1.8753366 4293977740
-7.7468348 15.563976 -1.8714013 4293977740
-7.6449518 15.604348 -1.8703279 4293977740
-7.5591822 15.615171 -1.8669889 4293977740
-7.4447751 15.660116 -1.8659155 4293977740
-7.3479943 15.678407 -1.8629344 4293977740
-7.2852626 15.672622 -1.8591182 4293977740
-9.5227327 15.744774 -1.8997982 4293977740
-9.4402733 15.775805 -1.8979701 4293977740
-7.2104993 15.704975 -1.8588796 4293977740
-7.1327081 15.730625 -1.8578064 4293977740
-7.0211582 15.74706 -1.8541095 4293977740
-6.9456563 15.777227 -1.8537519 4293977740
-6.8333383 15.790525 -1.8498163 4293977740
-9.3258772 15.809133 -1.8945425 4293977740
-9.2412767 15.835709 -1.8922578 4293977740
-9.1635799 15.873939 -1.8915722 4293977740
-6.7545557 15.812489 -1.8485045 4293977740
-6.6733775 15.828626 -1.8464773 4293977740
-6.5661678 15.851886 -1.8440921 4293977740
-6.4408221 15.865703 -1.8399184 4293977740
-6.3420472 15.872353 -1.8362215 4293977740
-6.2862778 15.877441 -1.8343136 4293977740
-9.0572891 15.919944 -1.8900871 4293977740
-8.9739103 15.947739 -1.8881447 4293977740
-8.8909464 15.975952 -1.886317 4293977740
-6.2099342 15.903192 -1.8338366 4293977740
-6.1534719 15.905963 -1.8316901 4293977740
-6.0609522 15.926523 -1.8300207 4293977740
-5.946156 15.963409 -1.8293049 4293977740
-5.8694863 15.987551 -1.8288281 4293977740
-8.8397579 16.002064 -1.8860884 4293977740
-8.7450056 16.038143 -1.8844888 4293977740
-8.6444969 16.063272 -1.8815186 4293977740
-8.5593958 16.086248 -1.8792336 4293977740
-5.7655354 16.014757 -1.8276353 4293977740
-5.644577 16.033554 -1.8248928 4293977740
-5.5468879 16.037199 -1.8214343 4293977740
-5.4512544 16.04579 -1.8186915 4293977740
-5.3317285 16.066055 -1.8164258 4293977740
-5.2485304 16.068384 -1.8135636 4293977740
-5.1365385 16.06699 -1.8092704 4293977740
-5.0571694 16.079679 -1.8078394 4293977740
-4.9481239 16.085505 -1.8046196 4293977740
-4.8667679 16.09062 -1.8023539 4293977740
-8.4415941 16.108036 -1.8751206 4293977740
-8.3551216 16.127308 -1.8724931 4293977740
-8.2441654 16.160915 -1.8700938 4293977740
-8.1549692 16.173824 -1.8667806 4293977740
-4.7869115 16.100056 -1.8006842 4293977740
-8.0465975 16.211401 -1.865067 4293977740
-7.9578953 16.224125 -1.861868 4293977740
-7.8454652 16.252344 -1.8591261 4293977740
-7.7602634 16.271164 -1.8568413 4293977740
-7.6801257 16.300383 -1.8559272 4293977740
-7.5629759 16.316725 -1.8519286 4293977740
-7.4814739 16.342262 -1.850672 4293977740
-7.3692923 16.368076 -1.8480444 4293977740
-7.2804117 16.376305 -1.8447311 4293977740
-7.200768 16.404968 -1.8440456 4293977740
-7.145247 16.418394 -1.8429031 4293977740
-7.0482321 16.441847 -1.840961 4293977740
-6.9473495 16.455669 -1.8378763 4293977740
-6.868578 16.485451 -1.8375335 4293977740
-10.214528 16.580961 -1.896567 4293977740
-6.7599888 16.516344 -1.8360484 4293977740
